# .PCD v0.7 - Point Cloud Data file format
VERSION 0.7
FIELDS x y z rgb
SIZE 4 4 4 4
TYPE F F F F
COUNT 1 1 1 1
WIDTH 1045
HEIGHT 1
VIEWPOINT 0 0 0 1 0 0 0
POINTS 1045
DATA ascii
0.37749341 -1.0896486 3.9004586 1.214857e-38
0.38296944 -1.0780143 3.81601 1.2885047e-38
0.39854941 -1.0855173 3.8675425 1.2608102e-38
0.40249115 -1.0786248 3.8460243 1.3160915e-38
0.40674368 -1.0779288 3.8403134 1.2793216e-38
0.41243225 -1.080642 3.8516798 1.251663e-38
0.52578896 -1.0858253 3.9560411 1.15954e-38
0.56360173 -1.0871543 3.9703159 1.0859992e-38
0.57138604 -1.0904391 3.9785786 1.1043663e-38
0.5803284 -1.0927299 3.9863257 1.1871625e-38
0.58181888 -1.0900422 3.9794114 1.1871625e-38
0.58807665 -1.0917937 3.9925151 1.159504e-38
0.59253067 -1.0917835 3.9956357 1.104187e-38
0.64352775 -1.0950137 4.0229955 1.1136223e-38
0.64817572 -1.0972619 4.0296412 1.1689394e-38
0.6671446 -1.0892102 4.0224471 1.0583761e-38
0.69381213 -1.0973344 4.0364494 1.0398289e-38
0.69737607 -1.0979841 4.0383625 1.0582679e-38
0.70093018 -1.0987054 4.0403867 1.0767432e-38
0.70869267 -1.0955784 4.0489335 1.0123503e-38
0.71332073 -1.097088 4.0543737 1.0307894e-38
0.83070064 -1.1021703 4.1078258 1.2608843e-38
0.88038933 -1.0897133 4.0722299 1.5743842e-38
0.91107261 -1.0954963 4.0963054 1.2241855e-38
1.0064692 -1.0927255 4.1112566 1.3796904e-39
1.0119234 -1.0947798 4.1194329 1.1963782e-39
1.045197 -1.085358 4.0686126 5.5173044e-40
1.0547165 -1.0864707 4.0618987 1.1041826e-39
-0.064704411 -1.0923094 3.8959224 7.3655456e-39
-0.048087478 -1.0888221 3.8864069 9.4788621e-39
-0.0068285684 -1.0980245 3.9227626 1.0676329e-38
0.10980794 -1.0912776 3.9034953 1.3345316e-38
0.12496847 -1.0861491 3.8935709 1.1689038e-38
0.14476851 -1.0922419 3.9172509 1.2976172e-38
0.14874093 -1.0944964 3.9253359 1.2884697e-38
0.17381695 -1.0846225 3.8839383 1.3161638e-38
0.19668128 -1.0890989 3.9272239 1.2792499e-38
0.19938703 -1.08884 3.925844 1.2515553e-38
0.20207785 -1.0889891 3.9248409 1.2608466e-38
0.20420715 -1.0880252 3.920537 1.297761e-38
0.22290176 -1.0949646 3.9317024 1.1872707e-38
0.28072163 -1.0832561 3.8764086 1.2425154e-38
0.2814661 -1.081616 3.8682096 1.2332961e-38
0.28433594 -1.0819473 3.8691084 1.2425157e-38
0.30352193 -1.0831028 3.8693316 1.2241131e-38
0.30111936 -1.0797244 3.8473246 1.2793571e-38
0.30523506 -1.0798264 3.8531604 1.2793571e-38
0.32461032 -1.0753222 3.8705547 1.19649e-38
0.36513728 -1.0806082 3.8794515 1.3254193e-38
0.36759332 -1.0798934 3.8779292 1.3438225e-38
0.37320599 -1.083843 3.8929665 1.2701022e-38
0.37732917 -1.0849952 3.8986661 1.2149291e-38
0.3789579 -1.0844349 3.8933377 1.2792497e-38
0.38584152 -1.079749 3.8721304 1.2884689e-38
0.39938825 -1.0844514 3.8892996 1.2976883e-38
0.38375583 -1.0758317 3.8195419 1.3069078e-38
0.40751076 -1.0753462 3.8419652 1.2885053e-38
0.41062883 -1.0754629 3.8438475 1.2793217e-38
0.41531247 -1.0769602 3.8519354 1.2240404e-38
0.5306772 -1.085413 3.9623473 1.1227698e-38
0.53231627 -1.0865271 3.9615579 1.132097e-38
0.54218382 -1.0852259 3.9721301 1.2056019e-38
0.55641329 -1.0855551 3.9663801 1.1320607e-38
0.57979798 -1.0870541 3.9779413 1.1595397e-38
0.58922923 -1.0891315 3.9934044 1.1687597e-38
0.59247082 -1.0886995 3.993294 1.1410653e-38
0.59429961 -1.0883633 3.991442 1.122698e-38
0.64570034 -1.092026 4.0209517 1.0398656e-38
0.69646257 -1.0898299 4.0224509 1.0583402e-38
0.70960248 -1.0930289 4.0521822 9.9391185e-39
0.71591419 -1.0969114 4.0648346 9.8465642e-39
0.83193529 -1.100935 4.1130714 1.2424812e-38
0.8992877 -1.0956619 4.100606 1.2057463e-38
0.91417181 -1.0889258 4.0891595 1.2150017e-38
0.93437749 -1.0917434 4.0958385 9.387028e-39
0.9694016 -1.0932566 4.1020551 3.863576e-39
0.97247171 -1.0980309 4.0950813 2.576077e-39
1.0116615 -1.0936849 4.1273937 1.4722476e-39
1.0127105 -1.0932668 4.1228623 1.1956593e-39
1.0582322 -1.0822926 4.0463881 2.8522982e-39
-0.050166648 -1.0919075 3.9027002 8.3753872e-39
0.10879476 -1.087505 3.8982627 1.3068731e-38
0.13861747 -1.0897048 3.9157794 1.3345316e-38
0.15345915 -1.093731 3.9247298 1.1690118e-38
0.15760881 -1.0881773 3.9169598 1.2885416e-38
0.16406217 -1.0854293 3.9050894 1.2793936e-38
0.1671854 -1.0853359 3.8819387 1.2793935e-38
0.16927317 -1.0850385 3.878252 1.2793935e-38
0.19539858 -1.0856473 3.9213009 1.2792857e-38
0.19868875 -1.0853642 3.9222665 1.2332239e-38
0.20118159 -1.0852894 3.9203737 1.2516633e-38
0.20343608 -1.0848687 3.9183497 1.2793582e-38
0.21002631 -1.0861816 3.9133861 1.2608476e-38
0.22074735 -1.0907784 3.9278867 1.19649e-38
0.22538246 -1.0849856 3.909797 1.288578e-38
0.22526067 -1.0859495 3.8986108 1.2058177e-38
0.26208729 -1.0832044 3.9034629 1.214857e-38
0.26667997 -1.0875584 3.9155829 1.187198e-38
0.2718066 -1.0861622 3.9124117 1.1595394e-38
0.29299086 -1.0780097 3.8531497 1.2978329e-38
0.30888775 -1.082954 3.8771815 1.2425162e-38
0.30925065 -1.0781165 3.8629248 1.2610271e-38
0.3159458 -1.0819988 3.8704507 1.1964184e-38
0.33516568 -1.0781438 3.8972595 1.2516998e-38
0.33369684 -1.0790782 3.8845751 1.2701387e-38
0.33239886 -1.0794501 3.8693349 1.3162353e-38
0.35973632 -1.0774493 3.8693957 1.2610264e-38
0.36613262 -1.0772096 3.8721352 1.3437862e-38
0.36946717 -1.0773089 3.8748329 1.3161634e-38
0.37206894 -1.0753962 3.8730445 1.3068718e-38
0.3743822 -1.0746391 3.8706353 1.3529696e-38
0.37785143 -1.0740106 3.872292 1.279358e-38
0.41373688 -1.0744119 3.8561308 1.2701023e-38
0.52539331 -1.0813293 3.9548485 1.1595041e-38
0.56210548 -1.0820253 3.9647357 1.1136574e-38
0.64857131 -1.0907387 4.0230751 1.0674524e-38
0.70908642 -1.0891885 4.0502071 9.7547287e-39
0.71240664 -1.0894243 4.0510798 9.5706976e-39
0.72023642 -1.0954177 4.0695314 9.6625359e-39
0.71969265 -1.0909736 4.0567579 1.0031318e-38
0.72192657 -1.0885526 4.0561743 1.0215712e-38
0.72790778 -1.0919189 4.0673785 1.0031323e-38
0.73006648 -1.0908146 4.0638056 9.6625387e-39
0.83093959 -1.1004506 4.1213441 1.2516649e-38
0.8841418 -1.0899276 4.0723991 1.5559093e-38
0.90199065 -1.0922786 4.107945 1.6388494e-38
0.96486312 -1.0882835 4.094346 3.7713748e-39
1.0019699 -1.078758 4.0838509 1.6548354e-39
1.0573022 -1.0800459 4.0367446 3.7713734e-39
-0.0016169784 -1.0909711 3.9100392 1.1597927e-38
0.087273657 -1.0736157 3.8241041 1.4544222e-38
0.10892371 -1.0854837 3.898793 1.2976538e-38
0.11454716 -1.0863928 3.9011331 1.3622265e-38
0.16126889 -1.0834877 3.9059603 1.2977967e-38
0.16547486 -1.0852638 3.913929 1.2885772e-38
0.17220533 -1.08831 3.9064331 1.0953629e-38
0.18839835 -1.0856727 3.914782 1.1138022e-38
0.19059674 -1.0827113 3.9103916 1.2608107e-38
0.19876063 -1.0830743 3.9234321 1.2332239e-38
0.20125568 -1.082561 3.9213889 1.2424798e-38
0.20398039 -1.0822489 3.9204206 1.2516996e-38
0.20805319 -1.0850044 3.9213469 1.307053e-38
0.20987111 -1.0833497 3.9126296 1.2701029e-38
0.27007914 -1.0848842 3.9175022 1.1871983e-38
0.2782613 -1.0814832 3.9140849 1.2056731e-38
0.2941632 -1.0841774 3.9041851 1.2240405e-38
0.31056267 -1.07275 3.8548553 1.2333325e-38
0.32041034 -1.0719367 3.8676989 1.2609912e-38
0.33490884 -1.0750887 3.8963041 1.2240767e-38
0.35119998 -1.0717314 3.8547776 1.3437867e-38
0.35428208 -1.0717908 3.8563912 1.4267979e-38
0.3572337 -1.0727431 3.8582697 1.4083229e-38
0.36020574 -1.073177 3.8596189 1.4082869e-38
0.36894372 -1.0737569 3.8717625 1.2609549e-38
0.37130955 -1.0746417 3.8723614 1.3069077e-38
0.37376016 -1.0750055 3.871491 1.3345665e-38
0.37617522 -1.0748756 3.8706508 1.3806642e-38
0.380757 -1.0709537 3.8598931 1.3806642e-38
0.38484877 -1.0742759 3.8693254 1.3345664e-38
0.41211298 -1.0698458 3.8489642 1.2793576e-38
0.41561523 -1.0723375 3.8528624 1.251663e-38
0.48142275 -1.0762178 3.9143283 1.1413165e-38
0.52971274 -1.079313 3.9498403 1.1042586e-38
0.58629733 -1.0783081 3.9547009 1.1227697e-38
0.59063035 -1.0787777 3.9594798 1.1043305e-38
0.64174479 -1.0864882 4.0132675 1.0398655e-38
0.68208301 -1.0836552 4.0187798 1.0399732e-38
0.70943582 -1.0858015 4.0511494 9.7543699e-39
0.71180713 -1.085863 4.0490499 1.0676316e-38
0.7172941 -1.0887663 4.0595613 9.6625345e-39
0.71916193 -1.0882779 4.0575385 9.8469271e-39
0.72830415 -1.0848844 4.055357 9.2941135e-39
0.73090559 -1.0856534 4.0496106 9.5710591e-39
0.73748082 -1.0865183 4.0513678 9.5703416e-39
0.77238351 -1.0866785 4.0651035 1.0951114e-38
0.77587086 -1.0866235 4.066359 1.1134429e-38
0.7802425 -1.0872601 4.070405 1.1043672e-38
0.78474909 -1.0890889 4.075798 1.1964914e-38
0.8063491 -1.0950273 4.1097898 1.1779794e-38
0.83380985 -1.089654 4.0845952 1.3808102e-38
0.86962086 -1.0916536 4.1120534 1.4363061e-38
1.0110208 -1.0886416 4.1255736 1.6555557e-39
1.0122015 -1.0882547 4.1213369 1.4718861e-39
1.0378449 -1.0789332 4.0596437 2.0236151e-39
1.0574794 -1.0742601 4.0251708 6.9016864e-39
-0.0090582445 -1.0883511 3.9123719 1.0952552e-38
-0.0061397669 -1.0881555 3.9117501 1.1413533e-38
0.082923345 -1.0711731 3.8147461 1.4543501e-38
0.11232981 -1.0819377 3.874299 1.3530069e-38
0.17766783 -1.087031 3.9352226 1.1230217e-38
0.17643648 -1.0844641 3.9140067 1.1045826e-38
0.17710501 -1.0847228 3.9073129 1.2885772e-38
0.18157414 -1.0837481 3.9099908 1.1137663e-38
0.20237535 -1.0806851 3.9271085 1.0861078e-38
0.20557083 -1.081311 3.9287913 1.1137303e-38
0.20928408 -1.0825348 3.9287021 1.2793224e-38
0.21180862 -1.0810766 3.9220307 1.2793585e-38
0.2219808 -1.0839484 3.9254308 1.2057098e-38
0.22478601 -1.0802629 3.9197645 1.2701389e-38
0.25947466 -1.0751179 3.8806024 1.2240765e-38
0.27368221 -1.0779823 3.8856239 1.1873785e-38
0.28711268 -1.0822738 3.8979559 1.1596479e-38
0.29048672 -1.0725484 3.8739064 1.3622979e-38
0.32055554 -1.0692072 3.868593 1.2517717e-38
0.33088765 -1.0709285 3.8875089 1.2609552e-38
0.34232628 -1.0734783 3.8617756 1.3530774e-38
0.3525424 -1.0699687 3.8506737 1.4268339e-38
0.35480988 -1.0696764 3.8491423 1.426798e-38
0.3568252 -1.0693994 3.8469977 1.4360176e-38
0.36409134 -1.0688332 3.8627162 1.3807361e-38
0.36633876 -1.0688909 3.861021 1.3530414e-38
0.37052721 -1.0685905 3.8657546 1.362261e-38
0.49301311 -1.0736578 3.9392645 1.1044743e-38
0.58394825 -1.0770854 3.9823256 1.1503206e-38
0.69086951 -1.0791217 4.0137472 1.0584844e-38
0.69931149 -1.0816226 4.0295234 9.7547287e-39
0.71193737 -1.0834304 4.0511351 9.7547287e-39
0.72025549 -1.0828465 4.0493774 9.8469285e-39
0.73086601 -1.0828012 4.0491619 9.9394815e-39
0.73833042 -1.0801518 4.0430784 9.4777845e-39
0.76968729 -1.0843892 4.0700707 1.0213549e-38
0.77298141 -1.085233 4.0714917 1.0581973e-38
0.77508944 -1.0849148 4.0689635 1.1319178e-38
0.78102523 -1.0856019 4.0738106 1.0674889e-38
0.78612047 -1.0876889 4.0809197 1.1042596e-38
0.82333881 -1.0880582 4.1050663 1.2055669e-38
0.87839901 -1.087763 4.0974832 1.5191024e-38
0.92219198 -1.080124 4.0797253 1.0216066e-38
0.93741697 -1.0812706 4.0692811 8.7420103e-39
1.009838 -1.0855327 4.1222963 2.2087308e-39
1.0546765 -1.0753359 4.0306892 5.8886219e-39
1.0540112 -1.0733677 4.0235395 7.0860791e-39
1.0549237 -1.0725598 4.0184922 7.3619387e-39
-0.045666836 -1.0807377 3.8746591 9.2955498e-39
0.11408303 -1.0829353 3.9036615 1.3805581e-38
0.21171664 -1.0783975 3.9219804 1.2793585e-38
0.21401675 -1.0779552 3.9191446 1.2793224e-38
0.21771786 -1.0779871 3.923003 1.2609193e-38
0.27280936 -1.0713049 3.8662758 1.2793583e-38
0.28868842 -1.0721272 3.8777792 1.3622981e-38
0.30469197 -1.0673054 3.8600249 1.2148935e-38
0.30739504 -1.067304 3.8598228 1.2332965e-38
0.31042823 -1.0687748 3.8620796 1.2517717e-38
0.31294465 -1.0686072 3.860286 1.270175e-38
0.34165478 -1.0726022 3.865855 1.3715527e-38
0.34741494 -1.069329 3.8634458 1.3531494e-38
0.3522456 -1.0669087 3.848913 1.4544207e-38
0.35485134 -1.0668373 3.8484871 1.4636045e-38
0.35828814 -1.0684758 3.8527563 1.445237e-38
0.36363706 -1.0705156 3.8630395 1.3991032e-38
0.36991459 -1.0653794 3.8635061 1.3991754e-38
0.37167525 -1.0653878 3.8600967 1.3991393e-38
0.3755464 -1.0651666 3.8616338 1.3991752e-38
0.37449628 -1.0702463 3.853699 1.3162e-38
0.38214466 -1.0660412 3.8659313 1.3346747e-38
0.38627827 -1.0655642 3.8660095 1.3254551e-38
0.50976151 -1.0682648 3.9186127 1.1963464e-38
0.50976568 -1.074155 3.9154611 1.1321333e-38
0.67742932 -1.0747732 4.0018024 1.0400453e-38
0.69756585 -1.077502 4.0238199 1.0031669e-38
0.70822734 -1.0812606 4.0442376 9.5703374e-39
0.72968978 -1.0783076 4.0435972 1.0675605e-38
0.7694155 -1.08167 4.069859 1.0398299e-38
0.77297992 -1.0831783 4.0726023 1.0581973e-38
0.78043646 -1.084505 4.0778041 1.1411375e-38
0.78716201 -1.0855718 4.0846033 1.058198e-38
0.80630881 -1.0881915 4.0991611 1.159469e-38
0.81438279 -1.0857196 4.0963988 1.1779441e-38
0.82009625 -1.0879904 4.1054559 1.1778722e-38
0.83121705 -1.0834255 4.0773787 1.4360549e-38
0.82384574 -1.0799968 4.0462127 1.4636768e-38
1.0537434 -1.072281 4.0257311 7.2704675e-39
-0.072950058 -1.0807718 3.8776054 8.0101934e-39
-0.063289814 -1.0762807 3.881428 8.2835517e-39
0.12750563 -1.0774636 3.8991361 1.3253121e-38
0.13071236 -1.0773565 3.9007237 1.3898489e-38
0.17143998 -1.0828843 3.9331927 1.1871987e-38
0.17467085 -1.0833308 3.9377539 1.1964181e-38
0.18299504 -1.0763975 3.9171102 1.0953631e-38
0.19752926 -1.0791922 3.9346259 1.1322054e-38
0.20041749 -1.0764583 3.9194703 1.2425514e-38
0.20782156 -1.0742943 3.9156926 1.2886137e-38
0.21332164 -1.0753653 3.9163201 1.2424442e-38
0.27809805 -1.0734458 3.9114149 1.2149291e-38
0.27161455 -1.0684466 3.8613362 1.2977974e-38
0.28958836 -1.0739241 3.8952336 1.3162004e-38
0.29000613 -1.0690086 3.8834133 1.3438229e-38
0.30587068 -1.0737807 3.8848245 1.224113e-38
0.33789289 -1.0693401 3.8614759 1.3992112e-38
0.34117016 -1.0689038 3.8631034 1.3992114e-38
0.35576969 -1.0635568 3.8416479 1.4452373e-38
0.3630335 -1.0625678 3.836488 1.4176505e-38
0.36413723 -1.0614309 3.8308539 1.3899559e-38
0.36888531 -1.0621976 3.8388703 1.3991395e-38
0.37228891 -1.0620878 3.8419013 1.4360177e-38
0.47237977 -1.0705574 3.9690394 1.2332239e-38
0.5119319 -1.0693371 3.9197834 1.1505362e-38
0.51586765 -1.0693773 3.9235198 1.1687593e-38
0.51444656 -1.0672075 3.908612 1.1042585e-38
0.6993323 -1.0767568 4.0311699 9.8472788e-39
0.70847768 -1.0796263 4.0443959 9.5706976e-39
0.77354419 -1.0803421 4.0744305 1.0859278e-38
0.77775425 -1.0815634 4.073524 1.1411013e-38
0.79147261 -1.0874134 4.1003518 1.0858562e-38
0.7944048 -1.0806172 4.0779562 1.1779798e-38
0.80007845 -1.0828022 4.0865793 1.1963829e-38
0.81667972 -1.0802562 4.1051159 1.1963824e-38
0.82209921 -1.0853086 4.1112781 1.1964181e-38
0.82235664 -1.0836585 4.1020021 1.2148222e-38
0.82857764 -1.0805852 4.078011 1.3807738e-38
0.82401663 -1.0770468 4.0460248 1.5281418e-38
0.87787342 -1.0811698 4.1086798 1.5282858e-38
1.0328398 -1.0714684 4.0617061 3.9557563e-39
-0.063252501 -1.0723567 3.8795891 8.6508965e-39
-0.060040239 -1.0732127 3.8826492 9.0189615e-39
-0.052393612 -1.0795062 3.9103565 8.5594197e-39
-0.01843643 -1.0802996 3.892314 1.2056029e-38
0.048711713 -1.0743688 3.8819568 1.518779e-38
0.12344043 -1.075207 3.9048812 1.3806656e-38
0.13346803 -1.0758802 3.9023516 1.3898847e-38
0.13602687 -1.0744894 3.9002435 1.3621902e-38
0.14036785 -1.0757191 3.9096315 1.3253119e-38
0.17146641 -1.0813528 3.9352686 1.2147855e-38
0.20536639 -1.0734693 3.9201972 1.2886133e-38
0.24921975 -1.0703857 3.9064198 1.1687237e-38
0.27726731 -1.071157 3.9110701 1.2332962e-38
0.27824083 -1.064091 3.8843875 1.1874149e-38
0.35984153 -1.0607524 3.83447 1.4361256e-38
0.36011076 -1.059176 3.8256435 1.4545287e-38
0.36330119 -1.0590315 3.8279576 1.4268699e-38
0.36959484 -1.0625279 3.8451791 1.3899558e-38
0.36917531 -1.0588228 3.830626 1.4176505e-38
0.5546158 -1.0634335 3.9473689 1.0952183e-38
0.69124192 -1.0713987 4.0301342 1.0400453e-38
0.69408524 -1.0711323 4.0291653 1.040081e-38
0.70050734 -1.0754545 4.0426812 1.0124226e-38
0.7039963 -1.0758476 4.0439849 9.9394759e-39
0.70854449 -1.0763053 4.0425 9.7550902e-39
0.78050059 -1.0766135 4.0734029 1.0766723e-38
0.7908473 -1.0797932 4.076951 1.1042598e-38
0.82298601 -1.0730321 4.0434823 1.546581e-38
0.99522883 -1.0763681 4.1143079 2.5749924e-39
-0.0747272 -1.0738254 3.8853014 7.3651869e-39
-0.066882744 -1.068453 3.8745396 8.9274805e-39
-0.063275501 -1.066435 3.8785594 9.5717723e-39
-0.058908224 -1.0754566 3.9018407 8.8367254e-39
-0.055060826 -1.075825 3.9081366 9.5721381e-39
-0.051470362 -1.0772146 3.9154975 9.3877468e-39
0.11713278 -1.0760247 3.9183559 1.417508e-38
0.12015402 -1.0757626 3.9191387 1.3897778e-38
0.12237932 -1.0731502 3.9030509 1.3806656e-38
0.12523913 -1.0737011 3.9042792 1.3898492e-38
0.18051223 -1.0700357 3.9188128 1.3069803e-38
0.20188901 -1.0712823 3.9189575 1.2886133e-38
0.20759796 -1.0714362 3.9167955 1.2886135e-38
0.28759444 -1.0631558 3.8839419 1.2885775e-38
0.31165868 -1.0612296 3.8374498 1.3438941e-38
0.31231797 -1.0570451 3.8262925 1.3530782e-38
0.31534001 -1.0572737 3.8279524 1.3622978e-38
0.31998661 -1.0622569 3.8423543 1.343894e-38
0.3401615 -1.0640768 3.9070683 1.2701743e-38
0.34316486 -1.0608287 3.897522 1.2242926e-38
0.36243886 -1.0598617 3.869071 1.2610631e-38
0.37259933 -1.0585734 3.8515632 1.4084309e-38
0.38959947 -1.0641459 3.8832214 1.3898479e-38
0.40201753 -1.0650319 3.8960512 1.3346746e-38
0.68453908 -1.0671059 4.017036 1.0308258e-38
0.70154315 -1.0699855 4.0347581 1.049265e-38
0.787148 -1.0784049 4.0903883 1.0766724e-38
0.78984243 -1.0777967 4.089159 1.0858921e-38
0.82309264 -1.080524 4.1048532 1.3438242e-38
0.95003271 -1.0717398 4.0934024 6.3488924e-39
0.96576834 -1.0613739 4.0480456 2.4835129e-39
0.99485809 -1.0735998 4.113327 2.6671895e-39
-0.069627181 -1.0668993 3.8781235 8.8360024e-39
-0.066720709 -1.0656312 3.8747053 9.2955428e-39
-0.056437209 -1.0724261 3.9002397 9.5724898e-39
-0.056336716 -1.0760932 3.8923228 8.8360066e-39
-0.016349804 -1.0730561 3.883297 1.3069458e-38
0.12032511 -1.0688479 3.8998108 1.2885423e-38
0.13416034 -1.0702453 3.9065597 1.2149658e-38
0.20456004 -1.0677878 3.9150827 1.2702099e-38
0.206205 -1.0654433 3.9069922 1.2701741e-38
0.20851 -1.0650624 3.9041522 1.2517354e-38
0.31055257 -1.0587569 3.8448124 1.334675e-38
0.31134161 -1.0582345 3.8364635 1.3438587e-38
0.31181395 -1.0544509 3.8247418 1.3531143e-38
0.31467572 -1.0543222 3.8257465 1.3438588e-38
0.35795182 -1.0569572 3.8527608 1.4268703e-38
0.37202659 -1.0522362 3.8385649 1.3438944e-38
0.37747908 -1.0530993 3.8503361 1.4360895e-38
0.38862801 -1.0610281 3.8850081 1.408323e-38
0.39302754 -1.0559608 3.8784008 1.4267622e-38
0.39842886 -1.0603297 3.8917615 1.3899196e-38
0.51789445 -1.0596863 3.945478 1.1779783e-38
0.69416785 -1.0662295 4.0298066 1.0769235e-38
0.69840044 -1.0676079 4.0343413 1.0676679e-38
0.70430452 -1.0682863 4.0443439 1.049265e-38
0.70469892 -1.0704856 4.032443 9.939836e-39
0.81741869 -1.0739318 4.0956683 1.2148575e-38
0.97012037 -1.0730727 4.0897698 2.3927648e-39
0.97768772 -1.061425 4.0640645 3.0352461e-39
-0.063376077 -1.0662472 3.885061 9.1118746e-39
-0.059516717 -1.0708846 3.8984604 9.3881e-39
-0.056570463 -1.0697527 3.90013 9.8479991e-39
0.1208998 -1.0664046 3.9026649 1.2701032e-38
0.12506407 -1.0676007 3.9098103 1.2702829e-38
0.19807707 -1.0678008 3.9383824 1.1229499e-38
0.20587258 -1.0620023 3.9128604 1.2424795e-38
0.21504544 -1.0601745 3.907048 1.2701743e-38
0.22967671 -1.0571384 3.8551939 1.2424801e-38
0.23282456 -1.0571595 3.8577054 1.2425159e-38
0.28429607 -1.0597584 3.8839879 1.2977616e-38
0.31332886 -1.0518292 3.8310149 1.3623338e-38
0.31493434 -1.0516237 3.8271511 1.3438947e-38
0.34275365 -1.0575496 3.8968723 1.2334763e-38
0.34569618 -1.0575476 3.8967934 1.2150732e-38
0.37307048 -1.0525994 3.8478985 1.3623337e-38
0.3903254 -1.051645 3.8777404 1.4175426e-38
0.39839575 -1.052673 3.8776624 1.4175426e-38
0.51960188 -1.058066 3.9420099 1.168795e-38
0.52704173 -1.0585799 3.9425423 1.1595756e-38
0.56201875 -1.0584674 3.9394207 1.1135857e-38
0.56822425 -1.0589682 3.942662 1.104438e-38
0.6981734 -1.0644078 4.0337739 1.0584844e-38
0.70406801 -1.0650109 4.0433559 1.0492648e-38
0.7140497 -1.0652707 4.0322356 9.9394759e-39
0.78845674 -1.0703033 4.0847363 1.0490499e-38
0.80926049 -1.0696059 4.0922208 1.1687237e-38
0.89766449 -1.0684162 4.1009722 1.685055e-38
0.95809036 -1.0650202 4.0916939 3.0356132e-39
0.12178132 -1.0631776 3.9010532 1.3162729e-38
0.22378393 -1.0639212 3.9277084 1.2517351e-38
0.22107121 -1.0507721 3.8361828 1.2701026e-38
0.22464108 -1.0497786 3.8396516 1.2515914e-38
0.28229684 -1.0581073 3.8887503 1.3254201e-38
0.28151157 -1.0544984 3.8692806 1.3438591e-38
0.28451696 -1.0551645 3.8705699 1.343859e-38
0.28945872 -1.0509549 3.833638 1.3346031e-38
0.29158127 -1.0507179 3.8315442 1.3438585e-38
0.3871043 -1.0495675 3.8762562 1.3991035e-38
0.39356455 -1.0499568 3.8805802 1.4175066e-38
0.39547655 -1.0490491 3.8766069 1.4175067e-38
0.38915801 -1.0462369 3.7965715 1.3346387e-38
0.49482641 -1.0658679 4.0064316 1.1503563e-38
0.49944332 -1.0618141 3.9860518 1.1597918e-38
0.52506971 -1.0553799 3.941679 1.15032e-38
0.53208786 -1.055285 3.9397757 1.0952187e-38
0.54440737 -1.0581638 3.9554818 1.1411366e-38
0.70903844 -1.0698202 4.0958858 1.0123148e-38
0.80760479 -1.0680401 4.097311 1.1687594e-38
0.81034267 -1.0679363 4.0963807 1.1410649e-38
0.89947122 -1.0648553 4.0961375 1.6666158e-38
0.95245409 -1.0584458 4.0493932 2.3920445e-39
0.99098438 -1.0587851 4.0638566 5.8878974e-39
-0.051801927 -1.0655934 3.9006135 1.0675244e-38
0.1719479 -1.0619048 3.9286089 1.2517718e-38
0.17536426 -1.0612675 3.930995 1.3254197e-38
0.1790425 -1.0619309 3.9364715 1.3622619e-38
0.18293886 -1.0636315 3.9446905 1.3162719e-38
0.18202047 -1.057638 3.925117 1.2700664e-38
0.18543634 -1.0598576 3.930831 1.2701022e-38
0.18745312 -1.0596293 3.9267931 1.251663e-38
0.22394781 -1.0596436 3.938889 1.0953628e-38
0.2683661 -1.0575724 3.8867481 1.2424802e-38
0.28456128 -1.0526692 3.871172 1.343859e-38
0.28649214 -1.0523622 3.868279 1.3622979e-38
0.29058233 -1.0474548 3.8279088 1.3714814e-38
0.3140468 -1.0493093 3.8478777 1.316236e-38
0.32256767 -1.052898 3.8613122 1.3531143e-38
0.3422043 -1.0578136 3.9288454 1.1690115e-38
0.33395228 -1.0521015 3.8439322 1.2609186e-38
0.37393919 -1.0458647 3.8487976 1.2242926e-38
0.39642733 -1.0460817 3.8686128 1.3991035e-38
0.38914904 -1.0434034 3.7965391 1.3162356e-38
0.43611747 -1.0505022 3.9090881 1.178051e-38
0.51870614 -1.0520276 3.9392233 1.196418e-38
0.5265094 -1.0525143 3.9401705 1.1135857e-38
0.5795204 -1.0576701 3.9526954 1.1504641e-38
0.69767231 -1.0587604 4.03232 1.0493007e-38
0.84633565 -1.0671126 4.1204538 1.4636051e-38
0.87431598 -1.0666864 4.0959182 1.5928955e-38
0.95977825 -1.0658201 4.0975952 1.1041868e-39
0.96049488 -1.0602744 4.0692534 2.2998489e-39
0.96921778 -1.0567167 4.0596819 2.9448511e-39
-0.050382309 -1.0597881 3.8886957 1.141065e-38
0.12743126 -1.0593904 3.9012108 1.3807728e-38
0.13051564 -1.0627073 3.9038579 1.1965983e-38
0.13504435 -1.062325 3.9017601 1.1874145e-38
0.17505296 -1.0558108 3.9279361 1.2610272e-38
0.17992939 -1.0587094 3.9418309 1.3069803e-38
0.1886317 -1.0554554 3.9166183 1.2516991e-38
0.28488293 -1.0451039 3.8262103 1.3622619e-38
0.28792179 -1.0449762 3.8280075 1.3622618e-38
0.29113129 -1.0449989 3.8290191 1.4083597e-38
0.34121376 -1.0535425 3.9238112 1.1690475e-38
0.35104081 -1.0520874 3.9086778 1.3899921e-38
0.35339004 -1.0519323 3.9066446 1.4084312e-38
0.42949563 -1.0499433 3.8961143 1.2977969e-38
0.51921445 -1.0499785 3.9417057 1.1411723e-38
0.52199566 -1.0499785 3.941474 1.1780147e-38
0.5253011 -1.0508993 3.9438639 1.1504638e-38
0.52863568 -1.0518273 3.938961 1.0767795e-38
0.57050169 -1.0514814 3.939702 1.1228417e-38
0.64379096 -1.0556068 4.013895 1.0767796e-38
0.68987727 -1.0640748 4.0835028 1.0398658e-38
0.70929623 -1.063764 4.0923886 1.030754e-38
0.80279207 -1.0604361 4.0868502 1.1411007e-38
0.80387491 -1.0607198 4.0794487 1.1687237e-38
0.80899394 -1.0629483 4.0885506 1.1779074e-38
0.81136286 -1.0611501 4.0859747 1.1779431e-38
0.82922781 -1.062807 4.088491 1.4083602e-38
0.87118948 -1.0590074 4.0836949 1.6942747e-38
-0.073998533 -1.0558454 3.8922465 8.2839118e-39
-0.063244678 -1.0599624 3.8789108 9.7547301e-39
-0.053010959 -1.0584704 3.8885245 1.1595401e-38
-0.049907118 -1.0607026 3.8936307 1.1318454e-38
-0.047164589 -1.0604407 3.8938229 1.1595401e-38
0.019363755 -1.0613711 3.8965921 1.5648762e-38
0.17623937 -1.0553782 3.9356256 1.2701376e-38
0.21516511 -1.0615219 3.969357 1.2425154e-38
0.25932431 -1.0654421 4.0138311 1.242408e-38
0.28342155 -1.0448345 3.8424888 1.3438946e-38
0.31497779 -1.0442994 3.8409817 1.233476e-38
0.36556098 -1.0442612 3.8469207 1.334747e-38
0.39087886 -1.0388429 3.784977 1.2886126e-38
0.42681813 -1.0473967 3.8963253 1.2701378e-38
0.54804248 -1.0433643 3.9053526 1.0859989e-38
0.55617648 -1.046937 3.9250021 1.0677041e-38
0.56937569 -1.051926 3.9471881 1.0859634e-38
0.64439058 -1.053027 4.0163608 1.0676322e-38
0.6492272 -1.0553626 4.0155287 1.0491571e-38
0.65168703 -1.0551399 4.0136294 1.0400453e-38
0.66043365 -1.0556566 4.0236683 1.0492648e-38
0.72344679 -1.0513859 4.0400863 9.3863021e-39
0.73704714 -1.0520929 4.0313449 9.9398346e-39
0.75114739 -1.0562576 4.0348821 1.0399375e-38
0.7550571 -1.0573131 4.0381122 1.0674524e-38
0.8028239 -1.0599267 4.0791793 1.1687237e-38
0.96311724 -1.0540297 4.068646 2.2080134e-39
0.96415937 -1.0505561 4.0607419 3.40403e-39
-0.05060748 -1.0546691 3.8883929 1.1962745e-38
0.067029558 -1.04667 3.8458748 1.5650922e-38
0.077218346 -1.0473554 3.8598204 1.5190304e-38
0.079127148 -1.047771 3.8553426 1.5190302e-38
0.080454253 -1.0474995 3.8485291 1.5374692e-38
0.13541032 -1.052839 3.8906953 1.1782674e-38
0.1774434 -1.0565943 3.9454975 1.2701018e-38
0.18229933 -1.0513545 3.9146948 1.2793576e-38
0.21192567 -1.0502921 3.9347627 1.2517351e-38
0.25106326 -1.06117 3.998143 1.1965622e-38
0.25710028 -1.0611646 4.0016484 1.2057457e-38
0.34343579 -1.0511914 3.9174526 1.2058895e-38
0.34250313 -1.0464411 3.8982387 1.3623337e-38
0.34486157 -1.0466613 3.8900311 1.3253475e-38
0.34859478 -1.0472139 3.8929276 1.3623335e-38
0.36296281 -1.0464621 3.9114432 1.3899564e-38
0.43005165 -1.0430523 3.8970411 1.1779789e-38
0.58077461 -1.0518588 3.9524713 1.0676682e-38
0.59487087 -1.0530684 3.9800081 1.0584487e-38
0.64104837 -1.0497497 4.0153255 1.0399734e-38
0.64993596 -1.0535012 4.0186839 1.0491569e-38
0.66612494 -1.0523939 4.0226789 9.9394731e-39
0.74944884 -1.0512321 4.0288191 1.0491931e-38
0.75596005 -1.0554408 4.0420518 1.0307181e-38
0.77716315 -1.0476953 4.0463305 1.1042588e-38
0.78226262 -1.0501614 4.0538888 1.1227339e-38
0.78787661 -1.0551962 4.0689993 1.1503206e-38
0.78999799 -1.0541676 4.0664592 1.0859633e-38
0.79334909 -1.0541198 4.0670152 1.0583402e-38
0.79387814 -1.0541372 4.0594168 1.1503565e-38
0.80021143 -1.0540154 4.0702753 1.1687596e-38
0.91131794 -1.0503659 4.0667114 1.3439662e-38
0.9629066 -1.0494859 4.0653424 3.4958641e-39
-0.085718907 -1.0535214 3.8896353 6.4436005e-39
-0.053554084 -1.0500025 3.8808315 1.1778712e-38
-0.050044362 -1.0521874 3.8932562 1.1778355e-38
0.072845548 -1.0449425 3.8504267 1.592751e-38
0.075321987 -1.0448028 3.850152 1.537541e-38
0.077577733 -1.044598 3.8480189 1.5467245e-38
0.079021603 -1.0439557 3.8413045 1.5559442e-38
0.14189124 -1.0468276 3.8765318 1.4175433e-38
0.1471826 -1.0515143 3.8922591 1.3899564e-38
0.14790948 -1.0475382 3.8793316 1.399068e-38
0.17727995 -1.0497832 3.9263687 1.2424792e-38
0.21361645 -1.0528146 3.9471831 1.2609544e-38
0.2531507 -1.0518069 3.9086068 1.2424802e-38
0.26905861 -1.048036 3.890507 1.2885417e-38
0.30089098 -1.039806 3.8465254 1.2242204e-38
0.35243595 -1.0451384 3.9169023 1.1965979e-38
0.35456437 -1.043684 3.9122365 1.1413165e-38
0.36122561 -1.0440882 3.9058616 1.3899925e-38
0.37654033 -1.0421429 3.86498 1.4545649e-38
0.44099024 -1.0450057 3.9323869 1.1687953e-38
0.48544541 -1.0427217 3.9397209 1.0307898e-38
0.51406288 -1.0402166 3.9246647 1.0676322e-38
0.62994558 -1.0488678 4.0143728 1.0398658e-38
0.64582759 -1.0493299 4.0145473 1.0491929e-38
0.64850157 -1.048906 4.0131607 1.0215342e-38
0.65623325 -1.0509225 4.0198269 1.0123506e-38
0.66935378 -1.0492517 4.0179749 1.067488e-38
0.67154342 -1.0448773 4.0042167 1.0213902e-38
0.69750816 -1.0488828 4.0259576 9.9373165e-39
0.72797072 -1.0476497 4.0464683 9.5706933e-39
0.746912 -1.0424335 4.0097117 1.0952909e-38
0.75083858 -1.0435948 4.012991 1.1045105e-38
0.78969711 -1.050882 4.0657277 1.0490492e-38
0.79351228 -1.051267 4.0678015 1.0306455e-38
0.7960729 -1.052423 4.0670223 1.1411369e-38
0.80014497 -1.0512691 4.0707612 1.1687597e-38
0.80537605 -1.0520642 4.0772772 1.1226976e-38
0.83793169 -1.0526842 4.0857587 1.4452391e-38
0.92838597 -1.0548656 4.1223788 1.3991761e-38
0.96717155 -1.0474298 4.0624418 4.2327061e-39
-0.092923798 -1.0508497 3.8897555 5.6156419e-39
-0.078001402 -1.04932 3.8827519 8.4672269e-39
-0.072479121 -1.053673 3.8876116 8.5590582e-39
-0.068729833 -1.0487955 3.8724465 1.1043307e-38
-0.067379884 -1.0478882 3.8635957 1.1503565e-38
0.073467955 -1.0428544 3.8547437 1.602042e-38
0.075126953 -1.0423491 3.8496058 1.5651636e-38
0.14083779 -1.0490346 3.9002249 1.1966345e-38
0.15037446 -1.0452139 3.8779845 1.3438583e-38
0.1987076 -1.0485754 3.9182489 1.2241123e-38
0.35425946 -1.0404365 3.9110444 1.1874146e-38
0.35717639 -1.040657 3.9110732 1.2058533e-38
0.35850427 -1.040859 3.9040878 1.3899925e-38
0.35841274 -1.0413218 3.8982332 1.3716253e-38
0.36938524 -1.0431156 3.9199479 1.2427312e-38
0.38448519 -1.0432484 3.9448245 1.1965978e-38
0.38414767 -1.0419526 3.914361 1.4269065e-38
0.38745412 -1.04346 3.9174836 1.4360896e-38
0.37723008 -1.0294133 3.8280895 1.3440023e-38
0.40591946 -1.0359327 3.8690028 1.2978328e-38
0.43010131 -1.0375348 3.8978033 1.2333322e-38
0.44725147 -1.042381 3.9326279 1.2517349e-38
0.45310327 -1.0387777 3.9318871 1.1595762e-38
0.60129339 -1.0367435 3.9473226 1.0216063e-38
0.64871907 -1.0460526 4.0141535 9.8472788e-39
0.65097237 -1.0484222 4.0121608 9.7550832e-39
0.66065454 -1.0460848 4.0137806 1.0124227e-38
0.66740495 -1.0441614 4.0123143 1.0124226e-38
0.72981918 -1.0468576 4.0533743 9.6628904e-39
0.75545806 -1.0407906 4.0111537 1.0492291e-38
0.78308922 -1.0508177 4.0871515 1.0306102e-38
0.78211302 -1.0457669 4.0502553 1.0858557e-38
0.78983045 -1.0479952 4.066443 1.0674164e-38
0.79338652 -1.048519 4.0679512 1.0121706e-38
0.79795903 -1.0505136 4.0735636 1.0581967e-38
0.80079412 -1.0482137 4.0729833 1.1502846e-38
0.80555159 -1.0491698 4.0782056 1.1411368e-38
0.82490903 -1.0503705 4.0910206 1.3438234e-38
-0.079739958 -1.0485662 3.8906064 8.008048e-39
-0.072311655 -1.0510633 3.8875468 9.0182384e-39
-0.072469428 -1.0458233 3.8653362 1.0490133e-38
0.03062561 -1.0464157 3.9075866 1.5649843e-38
0.07225956 -1.0402651 3.848613 1.620481e-38
0.075003676 -1.0402137 3.849539 1.6112252e-38
0.09765777 -1.0417398 3.8829014 1.5836026e-38
0.10491817 -1.0463307 3.8865731 1.5374336e-38
0.13758616 -1.0460893 3.8994377 1.2426963e-38
0.14270714 -1.0402895 3.880506 1.44513e-38
0.15086421 -1.0430419 3.881285 1.3714811e-38
0.18934065 -1.0461321 3.9004319 1.2793938e-38
0.25808746 -1.0494262 3.9780588 1.1780158e-38
0.35900337 -1.0397811 3.9030712 1.3807729e-38
0.36258057 -1.0398155 3.9061525 1.3715893e-38
0.36715862 -1.0361178 3.9072869 1.2058531e-38
0.40917423 -1.0350647 3.871187 1.1414606e-38
0.44223294 -1.0386353 3.9243264 1.2701741e-38
0.44748619 -1.0398264 3.9337046 1.2425154e-38
0.53251547 -1.0361983 3.9048626 1.1044019e-38
0.53706205 -1.0361991 3.9109793 1.030754e-38
0.54332513 -1.0360035 3.9204745 1.0951823e-38
0.5969553 -1.037165 3.950748 1.0123869e-38
0.65095514 -1.0455537 4.0125184 1.003131e-38
0.65978163 -1.0397481 4.0031548 1.0123507e-38
0.66801429 -1.0409302 4.0128741 9.9380339e-39
0.67087346 -1.04137 4.0129995 1.0214619e-38
0.72509795 -1.0433794 4.0479555 9.4781376e-39
0.72636318 -1.0413877 4.0410399 1.0308258e-38
0.74421799 -1.0388709 4.0109777 1.0307898e-38
0.7468484 -1.038705 4.0097108 1.0491572e-38
0.75072247 -1.0396382 4.0128417 1.1045105e-38
0.77561468 -1.044751 4.0724597 1.0491931e-38
0.78251636 -1.0431995 4.0517254 1.0582329e-38
0.79374069 -1.045952 4.0722647 1.1689394e-38
0.79772818 -1.0469049 4.0753527 1.1781229e-38
0.80297756 -1.045312 4.0766354 1.1686877e-38
0.80595058 -1.0462265 4.079021 1.1779431e-38
0.89034134 -1.047171 4.1026306 1.5284663e-38
-0.089012325 -1.045406 3.887522 6.2592121e-39
-0.074554935 -1.0488534 3.8925307 8.9264057e-39
-0.072860144 -1.0478472 3.8834584 9.4784991e-39
-0.073130786 -1.0432436 3.8613713 1.0857476e-38
0.021023061 -1.0500739 3.9092548 1.5834594e-38
0.038379505 -1.0500568 3.9075167 1.4361629e-38
0.092956617 -1.0404391 3.8896847 1.5467603e-38
0.10263344 -1.044865 3.8986638 1.5836031e-38
0.10822313 -1.0438372 3.8888004 1.5190302e-38
0.11121428 -1.0434983 3.8886886 1.500627e-38
0.24650583 -1.0440428 3.9465172 1.2700307e-38
0.28206548 -1.0365478 3.8741992 1.3438588e-38
0.29997185 -1.0368339 3.871202 1.3807728e-38
0.31855154 -1.0372146 3.9048831 1.3161641e-38
0.35294101 -1.0375414 3.9072459 1.4083956e-38
0.35609731 -1.0394752 3.9031656 1.3807369e-38
0.38232234 -1.0375011 3.9305017 1.4453455e-38
0.38600081 -1.0406858 3.9353385 1.4084672e-38
0.38741568 -1.0374705 3.9244361 1.23344e-38
0.40067703 -1.0403436 3.935998 1.3623335e-38
0.40386337 -1.04008 3.9371204 1.4083952e-38
0.40637428 -1.033873 3.8721609 1.1230215e-38
0.61347884 -1.0302231 3.8978164 1.0123143e-38
0.65034795 -1.0416448 4.0099564 1.0216061e-38
0.6534031 -1.0365325 3.9942284 1.0308257e-38
0.66572905 -1.0384648 4.0097642 9.847639e-39
0.67346412 -1.0397806 4.0130782 9.7554433e-39
0.72161102 -1.0415149 4.0470767 1.03079e-38
0.72676367 -1.0395302 4.0430245 9.3866608e-39
0.74928278 -1.0382395 4.0184464 1.0215704e-38
0.75318575 -1.0369287 4.0143757 1.0583766e-38
0.75971454 -1.0364821 4.0226893 1.0215703e-38
0.77066684 -1.0438533 4.0504599 1.0583766e-38
0.79281306 -1.0426295 4.0710583 1.076636e-38
0.7966069 -1.0427929 4.0720444 1.0857836e-38
0.80366045 -1.0429206 4.0795155 1.1226259e-38
0.81078148 -1.0448613 4.0849195 1.1502844e-38
0.82071924 -1.0479691 4.0981183 1.2332605e-38
0.86776388 -1.0466309 4.1131158 1.7126056e-38
0.87573838 -1.0448053 4.1121645 1.7034942e-38
0.89153439 -1.0443536 4.0992718 1.445598e-38
0.89348686 -1.0424238 4.0957379 1.4270512e-38
-0.097184099 -1.044961 3.9018261 4.9724305e-39
-0.091488235 -1.044553 3.9029579 5.70676e-39
-0.084744319 -1.0449557 3.9026518 7.2712074e-39
-0.081909418 -1.0443887 3.8972223 8.1913616e-39
-0.082054742 -1.0355853 3.8678718 1.0030235e-38
-0.079558805 -1.0371925 3.8661754 1.0490494e-38
-0.074350208 -1.0477937 3.8970687 8.926047e-39
0.017282737 -1.04686 3.9018316 1.5373615e-38
0.092801444 -1.0435896 3.9099605 1.5559441e-38
0.094219483 -1.0429112 3.9004037 1.5466884e-38
0.098515607 -1.0452185 3.9125507 1.5374691e-38
0.10380229 -1.0423758 3.9076414 1.5467248e-38
0.10462478 -1.0409395 3.8934534 1.5559079e-38
0.10529193 -1.0385534 3.8819427 1.5559081e-38
0.11379931 -1.0377495 3.8833733 1.5375052e-38
0.11816646 -1.0403606 3.8987527 1.5190302e-38
0.1410951 -1.0357265 3.8726456 1.4359823e-38
0.23598972 -1.0342671 3.9180653 1.2520595e-38
0.24780582 -1.0390536 3.89627 1.242408e-38
0.28593794 -1.0334095 3.8927724 1.3346393e-38
0.32364559 -1.0329778 3.9014118 1.3069806e-38
0.32583371 -1.0331302 3.8999763 1.3070164e-38
0.3471536 -1.0358571 3.9071348 1.1690473e-38
0.37100455 -1.0348314 3.9241438 1.3347109e-38
0.3699494 -1.0298789 3.9066157 1.1597554e-38
0.40827441 -1.0393735 3.9449 1.4083952e-38
0.40131921 -1.0376664 3.9094477 1.2242207e-38
0.39220345 -1.0295634 3.8595588 1.3254553e-38
0.55658871 -1.0331322 3.9489932 1.0306814e-38
0.6078909 -1.027779 3.8992968 1.0214621e-38
0.61050427 -1.0276737 3.8990097 1.0214622e-38
0.67059785 -1.0352602 4.0126162 1.0123144e-38
0.67402232 -1.0372577 4.0157185 9.8479977e-39
0.72230756 -1.0387859 4.0497236 9.4777789e-39
0.72446549 -1.0391759 4.0465689 9.3863035e-39
0.72706479 -1.0378137 4.0449371 9.4784977e-39
0.73369581 -1.0384362 4.0568562 9.3866608e-39
0.7554068 -1.0349207 4.0188122 1.0307179e-38
0.75691557 -1.0299507 4.011518 1.030754e-38
0.80359662 -1.0397085 4.0770078 1.1502486e-38
0.89005744 -1.0433676 4.1026044 1.4824045e-38
-0.076509021 -1.0415426 3.8856468 9.3859518e-39
0.095445886 -1.0380901 3.9070871 1.5651632e-38
0.10803758 -1.0377245 3.8959529 1.3346758e-38
0.10752629 -1.034331 3.8805044 1.5375045e-38
0.11140635 -1.0341362 3.8853066 1.5467603e-38
0.13544057 -1.0332236 3.8803918 1.4360906e-38
0.1590475 -1.0383414 3.9238527 1.1964903e-38
0.25125346 -1.0369222 3.8976038 1.2977256e-38
0.31582156 -1.0332829 3.9230273 1.3807367e-38
0.32199791 -1.0297672 3.896066 1.3070162e-38
0.35311884 -1.0344965 3.9099889 1.3807374e-38
0.35622042 -1.0351136 3.9117489 1.3715897e-38
0.35814652 -1.0333898 3.9068518 1.3715538e-38
0.35955086 -1.0314883 3.9056916 1.3808092e-38
0.48983765 -1.0274915 3.9009726 1.0215344e-38
0.49939755 -1.031697 3.9173117 1.0584125e-38
0.54103154 -1.0298848 3.9353325 1.0583759e-38
0.55131376 -1.0314586 3.9523547 1.0491562e-38
0.59364843 -1.0314549 3.9627247 1.0216063e-38
0.58518326 -1.0294858 3.9160154 1.0030591e-38
0.58304644 -1.0205884 3.8940699 1.0123145e-38
0.60401917 -1.0268115 3.906251 9.7543657e-39
0.60766053 -1.0267544 3.9095578 9.8458397e-39
0.67778331 -1.0345385 4.0167365 9.570329e-39
0.67934746 -1.0359113 4.0134535 9.6621645e-39
0.6823743 -1.0326421 4.0117497 9.7550846e-39
0.68456608 -1.0331408 4.0007601 9.8462012e-39
0.70733154 -1.0370816 4.030704 9.8476404e-39
0.71514809 -1.0398189 4.0475698 9.9394759e-39
0.72491628 -1.0363115 4.0483108 9.755086e-39
0.79616934 -1.037709 4.0675364 1.1041868e-38
0.80156368 -1.0372437 4.0743527 1.1318815e-38
0.83086377 -1.0433502 4.1025286 1.288506e-38
0.85394657 -1.038752 4.1081982 1.3255649e-38
0.87148392 -1.0391591 4.1083279 1.6574323e-38
0.0047506993 -1.0374197 3.8698905 1.4820807e-38
0.039927084 -1.0368555 3.8867321 1.6110825e-38
0.043346819 -1.0356015 3.890528 1.6019348e-38
0.045230795 -1.0351893 3.8830287 1.6479965e-38
0.16198099 -1.0349675 3.9086583 1.3622256e-38
0.25265467 -1.0277447 3.8966551 1.1413526e-38
0.26571101 -1.0321338 3.8890235 1.3162007e-38
0.26908392 -1.0318543 3.8907144 1.3438231e-38
0.27283967 -1.0312718 3.8954792 1.3346397e-38
0.29253328 -1.0313632 3.9217396 1.3069446e-38
0.32195497 -1.0284196 3.8936212 1.3070159e-38
0.32964197 -1.0290712 3.9025552 1.2058896e-38
0.33377704 -1.0276225 3.8984237 1.2151452e-38
0.35200328 -1.0281454 3.8982131 1.3162366e-38
0.37915903 -1.0308629 3.9171743 1.3624057e-38
0.38919547 -1.0329107 3.9243243 1.4176871e-38
0.41284969 -1.0226362 3.8655167 1.1229856e-38
0.44676179 -1.019454 3.8841467 1.0860353e-38
0.44994214 -1.0203688 3.8862357 1.0768516e-38
0.48119581 -1.0254536 3.8907778 1.1136218e-38
0.5584293 -1.0273049 3.9379604 9.6646882e-39
0.58931327 -1.0272826 3.9659061 9.6621687e-39
0.59108138 -1.0291833 3.9635837 9.385942e-39
0.59473985 -1.0283438 3.9664376 9.4777775e-39
0.6003412 -1.0279977 3.9744766 9.6621687e-39
0.5854916 -1.0184823 3.8877726 9.3859392e-39
0.59954721 -1.0272336 3.9129126 9.4788551e-39
0.66867638 -1.0286781 4.0126877 1.0031309e-38
0.67199355 -1.0289618 4.013988 9.9391129e-39
0.67494905 -1.0290129 4.0150328 9.8469159e-39
0.67689699 -1.0310857 4.014111 9.6628834e-39
0.67685354 -1.0311331 4.004684 9.3862979e-39
0.68064672 -1.0291047 4.0064783 9.6618086e-39
0.68441582 -1.0304298 4.0099006 9.5696143e-39
0.68149167 -1.0299786 3.9927022 9.8465586e-39
0.70665181 -1.0330251 4.0257664 1.0216421e-38
0.72144669 -1.0348626 4.0474949 1.0400095e-38
0.72434902 -1.0328692 4.0459237 9.7547259e-39
0.72830659 -1.0348904 4.0501862 9.662889e-39
0.72356844 -1.0313975 4.0277319 9.4781376e-39
0.73291022 -1.0310909 4.0434875 9.8472802e-39
0.76335263 -1.0295219 4.0308347 1.0307541e-38
0.76747209 -1.0305327 4.0326161 1.0399016e-38
0.76911718 -1.0281569 4.0273614 1.0951471e-38
0.79477394 -1.0342314 4.0629368 1.0949672e-38
0.80142903 -1.0338948 4.0720749 1.1318815e-38
0.80514967 -1.0341744 4.072475 1.1687594e-38
-0.073805749 -1.0316974 3.8726597 1.1318466e-38
-0.070305318 -1.0327432 3.8682022 1.1687248e-38
-0.0020574599 -1.0339934 3.8607974 1.4728254e-38
0.034120303 -1.0326416 3.8832278 1.5926793e-38
0.037489917 -1.0337056 3.8878117 1.5927151e-38
0.04007861 -1.0330098 3.8860869 1.6018987e-38
0.048848514 -1.032305 3.8896666 1.5834596e-38
0.1018446 -1.0310444 3.910275 1.546761e-38
0.16489096 -1.0292159 3.8989897 1.3622259e-38
0.21042079 -1.0302806 3.9105055 1.3253838e-38
0.27752206 -1.0296347 3.9171565 1.2334401e-38
0.28337318 -1.029146 3.917783 1.3714099e-38
0.28612152 -1.0289702 3.917877 1.3345315e-38
0.28921777 -1.0289903 3.9198639 1.3161282e-38
0.29214787 -1.0288453 3.9208357 1.3069444e-38
0.31576091 -1.0298696 3.9372256 1.1965982e-38
0.33015057 -1.0247709 3.8950999 1.1875223e-38
0.33396521 -1.0250493 3.8996401 1.1967059e-38
0.33686259 -1.0250176 3.8993151 1.1874864e-38
0.34444854 -1.02952 3.9092126 1.1874505e-38
0.34810793 -1.0271506 3.8936987 1.3438594e-38
0.35352385 -1.0269463 3.892905 1.3438594e-38
0.39419422 -1.0210603 3.8956091 1.1783027e-38
0.4194473 -1.0165409 3.8658273 1.3070523e-38
0.47799715 -1.0242898 3.9173052 1.0031314e-38
0.58927804 -1.0258896 3.9578197 9.9383955e-39
0.6003477 -1.0267148 3.9504111 1.0030951e-38
0.59751463 -1.0215245 3.9048889 9.019679e-39
0.60585028 -1.0208608 3.9033983 9.6621673e-39
0.67716038 -1.0305531 4.0307631 9.9391115e-39
0.68098134 -1.0319482 4.0295167 9.2948239e-39
0.67468446 -1.0275378 3.9966927 9.6625246e-39
0.67790174 -1.0276278 3.9982882 9.9387556e-39
0.6771512 -1.0271454 3.9878912 1.0214984e-38
0.69323933 -1.0325036 4.0146923 1.0123147e-38
0.69809735 -1.0293969 4.0190797 1.0031671e-38
0.70373142 -1.0288365 4.0277295 1.0400095e-38
0.70870185 -1.0292648 4.0348911 1.0123867e-38
0.71741313 -1.0314798 4.0436916 9.7543643e-39
0.72113019 -1.0314609 4.0465016 1.049229e-38
0.723791 -1.0310044 4.0449424 9.8472802e-39
0.72606432 -1.0291711 4.0408416 9.2933862e-39
0.73068428 -1.0322526 4.0474601 9.478139e-39
0.73699689 -1.0326736 4.0589709 9.8469201e-39
0.76958132 -1.0284971 4.0663056 1.030826e-38
0.77486867 -1.029985 4.0746574 1.0584125e-38
0.81226134 -1.0379664 4.0916195 1.1686877e-38
0.81666744 -1.0382318 4.0964971 1.1410649e-38
0.83621788 -1.0349334 4.1218476 1.2700666e-38
-0.084982716 -1.0356368 3.9197521 8.006613e-39
-0.079790294 -1.0349002 3.9133162 9.4792194e-39
-0.001680474 -1.0320417 3.8644938 1.4636778e-38
0.00037038801 -1.0304444 3.8580008 1.5373264e-38
0.0036025438 -1.032329 3.8624477 1.5650209e-38
0.03038903 -1.0278456 3.8751326 1.5742401e-38
0.038727228 -1.0297555 3.8781641 1.6111184e-38
0.042148445 -1.0308888 3.8833237 1.6479966e-38
0.16187742 -1.0278686 3.9067111 1.36219e-38
0.16476651 -1.027565 3.8979223 1.3621542e-38
0.26385233 -1.0244067 3.9005308 1.3345314e-38
0.26648015 -1.0262318 3.903198 1.3529346e-38
0.26732689 -1.0263915 3.8961453 1.3806653e-38
0.27421597 -1.0272335 3.9159181 1.389813e-38
0.28508934 -1.0274397 3.9263413 1.3621903e-38
0.31498927 -1.0243357 3.9223018 1.2150733e-38
0.35467711 -1.0190839 3.8811982 1.3439671e-38
0.3584426 -1.0209233 3.8873472 1.3347476e-38
0.38110679 -1.026773 3.9140794 1.3715893e-38
0.3894262 -1.0181589 3.8964937 1.1322408e-38
0.39580974 -1.0187052 3.8942266 1.1598996e-38
0.41814855 -1.0128211 3.8710675 1.2241483e-38
0.44760373 -1.0144843 3.860935 1.1319888e-38
0.54692322 -1.0200727 3.9349747 1.0124946e-38
0.54820359 -1.0177555 3.9274306 9.9401961e-39
0.58639663 -1.0214961 3.962455 9.6625274e-39
0.58964568 -1.0217803 3.9492965 9.3866608e-39
0.59419012 -1.0211639 3.92098 9.6621687e-39
0.59642625 -1.0170398 3.8988163 9.5699717e-39
0.59954423 -1.0176589 3.9001689 9.7543629e-39
0.68227583 -1.0278274 4.007772 1.0030951e-38
0.68378437 -1.0251845 4.000752 9.938757e-39
0.68288589 -1.0250176 3.990716 9.7543643e-39
0.7060135 -1.0281812 4.0368981 1.0031671e-38
0.71165442 -1.0281503 4.0351152 1.0031671e-38
0.7255469 -1.0264095 4.0505376 9.3859378e-39
0.73139733 -1.0301255 4.0614572 9.8472802e-39
0.73460323 -1.0300866 4.0618887 9.3855818e-39
0.73870474 -1.0243123 4.0420451 9.5710535e-39
0.77550012 -1.0250112 4.0644693 1.0214984e-38
0.81998169 -1.0358222 4.0981994 1.2055658e-38
0.83285451 -1.035604 4.1000996 1.3622624e-38
0.83715409 -1.0369569 4.1045117 1.4083246e-38
0.84696943 -1.0251597 4.0950618 1.5283587e-38
0.00022677376 -1.0268371 3.8560524 1.4452746e-38
0.0039028083 -1.0288869 3.8638775 1.5281427e-38
0.030927474 -1.0295565 3.8935173 1.555801e-38
0.03240918 -1.0277789 3.8739846 1.6111184e-38
0.03547341 -1.0281087 3.8761821 1.6203021e-38
0.10731515 -1.0271544 3.9108412 1.5191384e-38
0.13491891 -1.0264612 3.8965394 1.4452737e-38
0.1660559 -1.0250435 3.9040797 1.2977969e-38
0.28038043 -1.0243711 3.9182694 1.3714097e-38
0.28407013 -1.0244787 3.9220905 1.3621902e-38
0.33270597 -1.0184205 3.8933256 1.1967062e-38
0.33706948 -1.0210874 3.8889599 1.2794658e-38
0.34248725 -1.0206289 3.880636 1.3807375e-38
0.37001851 -1.0231961 3.9057052 1.1414243e-38
0.3822796 -1.0217117 3.9062438 1.3715176e-38
0.5463019 -1.0160118 3.9323497 1.0216063e-38
0.54925454 -1.0157938 3.9320414 9.8480005e-39
0.58494163 -1.0186651 3.9580023 1.003095e-38
0.58803123 -1.0193019 3.9593856 9.6621687e-39
0.59602123 -1.0164884 3.9013715 9.5699731e-39
0.59725553 -1.0140576 3.8938608 9.4777775e-39
0.65121728 -1.0243448 3.9879677 9.8472802e-39
0.67809016 -1.0246073 4.0022335 9.5703304e-39
0.67857307 -1.0212921 3.991075 9.3862993e-39
0.69281459 -1.0261896 4.008934 9.5706933e-39
0.71526736 -1.0255404 4.0371718 9.8476404e-39
0.72048473 -1.0239985 4.0437636 9.6625246e-39
0.75553191 -1.0182941 4.0321898 9.9391185e-39
0.75857788 -1.0206006 4.0258746 1.0031311e-38
0.76352966 -1.0258559 4.0391846 1.049229e-38
0.80722499 -1.0310487 4.0916524 1.0859992e-38
0.86357999 -1.0271891 4.1023235 1.4085044e-38
0.87084401 -1.0281876 4.1061163 1.3901373e-38
-0.093641177 -1.0308418 3.929374 5.9826322e-39
0.037903104 -1.0253481 3.8747156 1.6572521e-38
0.16964617 -1.022624 3.8711934 1.3898489e-38
0.17463715 -1.0231798 3.8830764 1.19649e-38
0.17772399 -1.0236189 3.8843911 1.2241127e-38
0.37786251 -1.0105487 3.883853 1.3531145e-38
0.3804462 -1.0098752 3.8817782 1.3347113e-38
0.38379192 -1.0104896 3.8839421 1.3439308e-38
0.38650423 -1.0108968 3.8839841 1.3439306e-38
0.42343965 -1.0201553 3.9395089 1.3162359e-38
0.40783441 -1.0094998 3.8543179 1.2332958e-38
0.42406249 -1.0091249 3.8462617 1.1964894e-38
0.42725489 -1.0088555 3.8476675 1.1596832e-38
0.47843581 -1.0075694 3.8467247 1.0676675e-38
0.48016536 -1.0073676 3.8437545 1.0676677e-38
0.48800957 -1.0091597 3.8532887 9.6625288e-39
0.49331877 -1.009558 3.8530705 1.003131e-38
0.55014014 -1.0139101 3.9360125 9.7565237e-39
0.58374888 -1.0160271 3.954628 1.0215701e-38
0.58683854 -1.0165429 3.9558866 1.0123506e-38
0.65449709 -1.0214146 3.988945 9.662889e-39
0.66507095 -1.0123869 3.9630992 8.6501762e-39
0.68553394 -1.0230583 4.0081263 9.7547245e-39
0.71068037 -1.0231375 4.0316243 9.8472802e-39
0.71774751 -1.0245757 4.0460701 9.8469229e-39
0.76385075 -1.0207866 4.0343909 9.8469201e-39
0.78257543 -1.0231502 4.0825787 1.0123867e-38
0.84258544 -1.0219551 4.0754843 1.4729333e-38
-0.091855697 -1.0303169 3.929347 6.3499742e-39
0.037971169 -1.0227947 3.8754637 1.6388127e-38
0.13268042 -1.0201969 3.9232063 1.2242926e-38
0.13269994 -1.0240211 3.9199431 1.215073e-38
0.13444932 -1.0238086 3.9127381 1.4360902e-38
0.13455735 -1.0189211 3.8948495 1.4360183e-38
0.16474409 -1.019315 3.8742411 1.417579e-38
0.16738576 -1.0189637 3.8733747 1.3714095e-38
0.26250228 -1.0135957 3.8829799 1.3530065e-38
0.3396855 -1.0146166 3.8803973 1.3715179e-38
0.34186336 -1.0145674 3.8781316 1.3623342e-38
0.39024758 -1.0156573 3.9175611 1.3438946e-38
0.46802443 -1.0109459 3.8992922 1.0031669e-38
0.47247219 -1.0052588 3.8446467 1.0583761e-38
0.47763675 -1.0049924 3.8441391 1.0584121e-38
0.47983712 -1.0048227 3.8427923 1.0768869e-38
0.48448575 -1.0055426 3.8411503 1.0584481e-38
0.53793889 -1.0090212 3.9111738 9.5714136e-39
0.54583347 -1.0127891 3.9316199 9.4806557e-39
0.5522055 -1.0131036 3.9339187 9.5717738e-39
0.56475478 -1.0081295 3.9340003 9.2948281e-39
0.65099943 -1.0181843 3.9876049 1.0216064e-38
0.67191982 -1.0144583 4.0215278 9.3859434e-39
0.71137649 -1.0209795 4.034555 9.8472802e-39
0.72212142 -1.023279 4.0514574 9.5706948e-39
0.84430265 -1.0199097 4.0805197 1.3992128e-38
-0.13826585 -1.0190178 3.8340712 4.5121726e-39
0.018692223 -1.0226096 3.8895142 1.5373623e-38
0.054054029 -1.0207508 3.8876529 1.6388847e-38
0.18044013 -1.0195757 3.9011099 1.2149291e-38
0.18355101 -1.0186449 3.9002941 1.2977611e-38
0.23057185 -1.0163368 3.9034348 1.3898487e-38
0.34058315 -1.0109515 3.8912482 1.3714819e-38
0.37948626 -1.0050334 3.8898332 1.3254917e-38
0.40814903 -1.0049202 3.8504632 1.2241481e-38
