# .PCD v0.7 - Point Cloud Data file format
VERSION 0.7
FIELDS x y z rgb
SIZE 4 4 4 4
TYPE F F F F
COUNT 1 1 1 1
WIDTH 1017
HEIGHT 1
VIEWPOINT 0 0 0 1 0 0 0
POINTS 1017
DATA ascii
0.62555325 -0.11000438 3.755846 1.7046427e-38
0.62601715 -0.10931014 3.7491577 1.6862395e-38
0.6271807 -0.10908383 3.7445207 1.6678005e-38
0.63144082 -0.11048956 3.7511451 1.6493256e-38
0.63005632 -0.10993258 3.7407725 1.6400703e-38
0.63423842 -0.10954753 3.7410569 1.6032278e-38
0.62922013 -0.10790167 3.6884923 1.6585432e-38
0.63168055 -0.10690069 3.7040436 1.6124826e-38
0.63216424 -0.10721218 3.696388 1.6492525e-38
0.63696039 -0.10725649 3.6969461 1.5938988e-38
0.64155984 -0.1076884 3.6992025 1.5569131e-38
0.64431381 -0.10705233 3.6991224 1.4094717e-38
0.64614266 -0.10730772 3.6963093 1.4741513e-38
-0.19736464 -0.11306798 3.6813347 1.059204e-38
-0.19471779 -0.11249533 3.6786675 1.0130316e-38
-0.19042328 -0.11219821 3.6933973 9.9452058e-39
-0.18184786 -0.11217406 3.6650131 1.0316899e-38
-0.17896026 -0.11348679 3.6628582 1.0593484e-38
-0.17415118 -0.11266632 3.6514103 1.0589854e-38
-0.1714054 -0.11206795 3.6530306 1.0405465e-38
-0.16698207 -0.11171287 3.6741614 1.0406181e-38
-0.16462439 -0.11021402 3.6721442 1.0405458e-38
-0.16190624 -0.10985627 3.6730328 1.0405102e-38
-0.15892304 -0.10987664 3.677417 9.0268704e-39
-0.15658206 -0.11029132 3.6788468 9.11835e-39
-0.15435888 -0.10994809 3.6762836 9.671158e-39
-0.14491686 -0.1096235 3.6738324 1.5292154e-38
0.10146211 -0.11307501 3.7814906 1.1239529e-38
0.10356366 -0.11320546 3.7823832 1.0317217e-38
0.106481 -0.11342432 3.7838387 9.3949061e-39
0.10928435 -0.11347835 3.784755 9.3949075e-39
0.11279575 -0.11322463 3.7843735 1.031543e-38
0.11546224 -0.11313366 3.7850287 1.0591658e-38
0.11969732 -0.11317255 3.7861848 1.1330298e-38
0.12167493 -0.11308181 3.783988 1.1699438e-38
0.12476946 -0.11306448 3.7836657 1.2160053e-38
0.12722185 -0.11274878 3.7825961 1.2712507e-38
0.12987126 -0.11263801 3.7818265 1.2896181e-38
0.13298623 -0.11297588 3.7840183 1.3632665e-38
0.13563909 -0.11274059 3.7796986 1.3816695e-38
0.13830003 -0.11229058 3.7792585 1.4001442e-38
0.14327322 -0.11134864 3.7686121 1.5291819e-38
0.14619519 -0.11174757 3.7673101 1.4738286e-38
0.14652777 -0.10888948 3.7484982 1.4922315e-38
0.14866045 -0.10995357 3.748009 1.4922678e-38
0.15250173 -0.10990696 3.7533374 1.5199987e-38
0.15512119 -0.10868272 3.7451954 1.6305606e-38
0.15905136 -0.10983262 3.7526863 1.5384018e-38
0.16180491 -0.10902204 3.7487979 1.5200706e-38
0.16463597 -0.10925878 3.7485902 1.5569127e-38
0.1677783 -0.10792054 3.7417357 1.5936481e-38
0.16971804 -0.11199442 3.7478344 1.5569127e-38
0.17144416 -0.11130117 3.7424834 1.5199985e-38
0.17284533 -0.11105142 3.7348158 1.5568768e-38
0.17644443 -0.11083571 3.7416937 1.6859851e-38
0.18059427 -0.1081128 3.7397537 1.6305262e-38
0.18325354 -0.11128126 3.7445686 1.5568765e-38
0.18569535 -0.11049499 3.7430437 1.6859495e-38
0.18782723 -0.10994253 3.7426734 1.6029742e-38
0.1912982 -0.1099456 3.7409446 1.685986e-38
0.1939778 -0.10954633 3.741514 1.5569125e-38
0.19683263 -0.10937063 3.7422514 1.5937192e-38
0.19979656 -0.11111586 3.7615368 1.5845359e-38
0.20346013 -0.1105046 3.7805254 1.5014511e-38
0.20413175 -0.11072202 3.7567728 1.5846076e-38
0.20678443 -0.11140367 3.7599964 1.6030469e-38
0.21042639 -0.11114837 3.7554302 1.6215578e-38
0.21369457 -0.11116893 3.7569089 1.6491805e-38
0.21632081 -0.1116409 3.7546549 1.6215937e-38
0.21892864 -0.11153206 3.7547247 1.6215219e-38
0.22177179 -0.11123746 3.7563381 1.7136089e-38
0.22435144 -0.1110089 3.7577703 1.6859505e-38
0.2293938 -0.1098603 3.7668777 1.6584006e-38
0.23062366 -0.11011326 3.7585444 1.6399973e-38
0.23348202 -0.11103405 3.7485573 1.6123385e-38
0.23634303 -0.11129113 3.7821863 1.6399256e-38
0.23799445 -0.11116467 3.7765539 1.621522e-38
0.24616081 -0.11189706 3.8089015 1.6584004e-38
0.24817662 -0.11144839 3.8049424 1.6584369e-38
0.24977067 -0.10986889 3.8063529 1.6307062e-38
0.25270155 -0.11066145 3.8105927 1.6675848e-38
0.26180092 -0.11106504 3.8122644 1.713608e-38
0.26629147 -0.1121044 3.8219807 1.7045354e-38
0.26892656 -0.11249069 3.8210125 1.6769846e-38
0.27494773 -0.11299302 3.8420799 1.7139349e-38
0.27672812 -0.11283318 3.8355894 1.7230824e-38
0.27706853 -0.11245874 3.8224626 1.6770206e-38
0.27633724 -0.11255691 3.7807193 1.8613386e-38
0.28001064 -0.11353694 3.7853203 1.7047864e-38
0.291309 -0.1156945 3.8166883 1.8613355e-38
0.3180308 -0.11112175 3.8253291 1.9443532e-38
0.320416 -0.11177108 3.8253305 1.6310664e-38
0.32201385 -0.11258917 3.8226461 1.6031561e-38
0.32154226 -0.10702503 3.7706521 1.510996e-38
0.32487774 -0.10717615 3.7570148 1.667547e-38
0.32165655 -0.10681836 3.6818984 1.6585099e-38
0.32447532 -0.10709441 3.683964 1.6400708e-38
0.33333844 -0.10748316 3.6909595 1.6124481e-38
0.33638951 -0.10785431 3.693712 1.5847537e-38
0.33971813 -0.10810258 3.6945429 1.6215602e-38
0.34249666 -0.10785863 3.6921268 1.5846819e-38
0.34547997 -0.10785069 3.6932473 1.5754985e-38
0.35071298 -0.10862908 3.7173347 1.6215962e-38
0.35603884 -0.1099318 3.7229736 1.6123768e-38
0.35634452 -0.10953809 3.7042215 1.3081663e-38
0.36090586 -0.11037295 3.7118964 1.473901e-38
0.36630505 -0.10790993 3.7305191 1.3358627e-38
0.37193543 -0.10715576 3.7475264 1.1882749e-38
0.37189478 -0.1081358 3.7456243 1.3450447e-38
0.37684819 -0.10769271 3.7533667 1.1239208e-38
0.37872866 -0.10784983 3.7483437 1.1331749e-38
0.38134438 -0.10792653 3.7515645 1.0686385e-38
0.38552013 -0.10953962 3.7552285 8.9332217e-39
0.38913235 -0.10889288 3.7584569 8.01235e-39
0.39215732 -0.11115895 3.7646928 8.7499206e-39
0.39395961 -0.11009265 3.7618616 8.1052729e-39
0.39727622 -0.11003112 3.763447 7.9219606e-39
0.39825621 -0.10909696 3.754426 8.1052729e-39
0.40144619 -0.10882809 3.7565842 8.8417547e-39
0.40458739 -0.10821732 3.7525389 9.3016468e-39
0.41584808 -0.10975653 3.7554739 1.1235938e-38
0.42125779 -0.11061441 3.7678139 9.8541116e-39
0.42168543 -0.10819592 3.7578895 1.2157164e-38
0.42228487 -0.10763244 3.7483213 1.2434112e-38
0.42516744 -0.1097008 3.749161 1.2618509e-38
0.42575553 -0.10880157 3.7368588 1.2525597e-38
0.426218 -0.10851096 3.7268927 1.225082e-38
0.43743977 -0.10755858 3.7222681 1.3634107e-38
0.44235992 -0.10736328 3.7263222 1.3911054e-38
0.4433535 -0.10756051 3.722533 1.4002888e-38
0.44694939 -0.10701302 3.7240939 1.4094365e-38
0.44962263 -0.1079334 3.7250578 1.4278037e-38
0.45262372 -0.10771604 3.7202444 1.483121e-38
0.45336553 -0.1075976 3.7145262 1.3266768e-38
0.45512682 -0.1084637 3.7141225 1.5015958e-38
0.45738026 -0.10838136 3.7107828 1.519999e-38
0.46001741 -0.10839297 3.7100782 1.5015957e-38
0.46991935 -0.10868438 3.741765 1.5385463e-38
0.46919915 -0.10919707 3.7294092 1.5385823e-38
0.47498152 -0.10830583 3.7428999 1.5662051e-38
0.47495496 -0.10950867 3.7329679 1.5385463e-38
0.48041925 -0.1073219 3.7537591 1.5201076e-38
0.48203903 -0.10922557 3.7444129 1.4832652e-38
0.48686555 -0.10856152 3.7475233 1.5017044e-38
0.49274307 -0.10888304 3.7616682 1.5201436e-38
0.48808053 -0.10861185 3.7310061 1.5110319e-38
0.48675743 -0.10707257 3.7059636 1.5663131e-38
0.4900952 -0.10715644 3.7082961 1.5570937e-38
0.49316671 -0.1065461 3.7095866 1.5386183e-38
0.4968718 -0.10682239 3.710494 1.5754967e-38
0.49923766 -0.1076638 3.7109933 1.5847161e-38
0.50226784 -0.10801123 3.70401 1.5663127e-38
0.50292915 -0.1070261 3.6961484 1.5938997e-38
0.50635552 -0.10688241 3.6995003 1.6031195e-38
0.50843084 -0.10841874 3.7019618 1.5109244e-38
0.51047921 -0.10786105 3.7007484 1.5940444e-38
0.51693922 -0.10812684 3.7177002 1.538547e-38
0.52064162 -0.10817163 3.7219114 1.557022e-38
0.52403551 -0.10750651 3.7232168 1.5662415e-38
0.52530301 -0.10710959 3.7187922 1.5846806e-38
0.5299263 -0.10679862 3.7201192 1.6123035e-38
0.5436812 -0.10915963 3.7844326 1.5202517e-38
0.54570234 -0.10849818 3.778549 1.5202159e-38
0.54798973 -0.10874631 3.7754564 1.5568395e-38
0.55152887 -0.10816866 3.7777395 1.5660949e-38
0.54624444 -0.10762418 3.7165794 1.5940084e-38
0.54895985 -0.10770334 3.7155163 1.6031918e-38
0.55070001 -0.10700166 3.7120557 1.6032278e-38
0.55177838 -0.1063225 3.7010484 1.5386917e-38
0.55703413 -0.10632317 3.7094975 1.6308864e-38
0.56031948 -0.10693903 3.7111354 1.6678006e-38
0.56329352 -0.10784106 3.7152486 1.6862396e-38
0.56926531 -0.10536949 3.6892052 1.5571303e-38
0.57399261 -0.10589775 3.7004089 1.4648991e-38
0.57615066 -0.1049358 3.6986012 1.4741546e-38
0.57835728 -0.10555457 3.6965976 1.4741188e-38
0.58140457 -0.10431109 3.7005265 1.4833385e-38
0.58790785 -0.10535294 3.7226472 1.6677292e-38
0.58941126 -0.1040809 3.7197208 1.510997e-38
0.59263474 -0.10488304 3.721745 1.5018135e-38
0.59964556 -0.10753281 3.7512555 1.8798504e-38
0.60784978 -0.10854388 3.773144 1.6858784e-38
0.60758197 -0.10962632 3.7677662 1.6859141e-38
0.61322176 -0.10851193 3.7791765 1.713537e-38
0.61594993 -0.1090415 3.7777462 1.5939729e-38
0.61749381 -0.10905127 3.7764623 1.5847174e-38
0.61794639 -0.10922419 3.7664776 1.6583632e-38
0.62107819 -0.10743294 3.7687562 1.6582917e-38
0.62323087 -0.10650879 3.7482376 1.7046787e-38
0.62471753 -0.10600037 3.7443194 1.7046427e-38
0.6295743 -0.1072439 3.7567198 1.7046427e-38
0.62986785 -0.10708146 3.7480354 1.6585809e-38
0.63139963 -0.1064448 3.7453427 1.6032277e-38
0.63415647 -0.10683706 3.740505 1.5847887e-38
0.62882197 -0.10523508 3.6873841 1.6308852e-38
0.63296771 -0.10435965 3.7056222 1.5756047e-38
0.63605917 -0.10469087 3.7050431 1.5571653e-38
0.63784331 -0.10415411 3.695399 1.5386179e-38
0.63903672 -0.10433547 3.6925697 1.5385817e-38
0.64512849 -0.10511093 3.7014449 1.4740445e-38
0.64705139 -0.10465336 3.6991882 1.4740799e-38
0.64874303 -0.10479944 3.6957743 1.5570535e-38
-0.19700694 -0.10744611 3.6693511 1.0592038e-38
-0.19456078 -0.11062694 3.6808972 1.0037403e-38
-0.19221644 -0.11022363 3.6924937 9.944847e-39
-0.18544726 -0.11225959 3.7170465 9.2109128e-39
-0.17969406 -0.10887632 3.6378202 1.1328153e-38
-0.17285857 -0.11006187 3.6755695 9.9481177e-39
-0.17028135 -0.10917449 3.6719468 1.0774246e-38
-0.16711414 -0.10774107 3.6745377 1.0498737e-38
-0.16448466 -0.10708091 3.6735024 1.0313261e-38
-0.16181238 -0.10691008 3.6768093 8.9339545e-39
-0.15937711 -0.10777989 3.6748133 1.050019e-38
-0.15640572 -0.10787466 3.6807501 9.300921e-39
-0.15427348 -0.10733639 3.6766255 9.670435e-39
-0.15215313 -0.10881265 3.6847014 1.2526313e-38
-0.14998697 -0.10858458 3.682409 1.2250459e-38
0.09755411 -0.11052398 3.7674375 1.0318287e-38
0.1016243 -0.11072268 3.7776504 9.1186905e-39
0.10238998 -0.11074635 3.7725294 9.6714958e-39
0.10693768 -0.1108661 3.7823529 8.8417491e-39
0.10968538 -0.11109108 3.7821064 9.2098099e-39
0.11245332 -0.1105756 3.7827749 9.9470177e-39
0.11717188 -0.11094581 3.7825155 1.0776051e-38
0.11989243 -0.11098793 3.7870145 1.1421778e-38
0.1226638 -0.11069281 3.7847357 1.1883112e-38
0.12511991 -0.11044159 3.7839868 1.2434848e-38
0.12787516 -0.11027342 3.783416 1.2435205e-38
0.13010176 -0.11001216 3.7817197 1.3172047e-38
0.1325831 -0.10976849 3.780828 1.4001804e-38
0.13521086 -0.10970148 3.7813425 1.5292167e-38
0.13777234 -0.10874616 3.7784481 1.5292526e-38
0.14349024 -0.10840432 3.7653384 1.5291822e-38
0.14619139 -0.10876713 3.7656467 1.5014875e-38
0.14676483 -0.10730457 3.752398 1.5014875e-38
0.14822689 -0.10695847 3.7450356 1.5014877e-38
0.1519991 -0.10642523 3.7425315 1.5291825e-38
0.15503094 -0.10680478 3.741133 1.5015597e-38
0.15798655 -0.10761092 3.7428014 1.5200347e-38
0.16126953 -0.10783173 3.7442081 1.519999e-38
0.16403033 -0.10773671 3.7456532 1.5476932e-38
0.1680363 -0.10881163 3.7476954 1.4461327e-38
0.17019138 -0.1055075 3.7308724 1.6120872e-38
0.17039548 -0.10614722 3.7207243 1.6212709e-38
0.1706962 -0.10678134 3.7110744 1.4370213e-38
0.175642 -0.10716406 3.7208173 1.6305624e-38
0.18044783 -0.10683847 3.7371633 1.685986e-38
0.18272965 -0.10828815 3.7411053 1.5014881e-38
0.18525892 -0.10856482 3.7416372 1.6121939e-38
0.18806902 -0.10814144 3.7429614 1.6767663e-38
0.19001542 -0.10743445 3.7333837 1.7136445e-38
0.19292316 -0.10700962 3.7352931 1.5937194e-38
0.19535355 -0.10717258 3.7366979 1.5844997e-38
0.20060885 -0.10747391 3.75191 1.6768387e-38
0.20316204 -0.10673069 3.7534966 1.6030469e-38
0.20547873 -0.106926 3.7502317 1.5938995e-38
0.20811121 -0.10819154 3.7441933 1.6123384e-38
0.20951356 -0.10667697 3.7316079 1.6399606e-38
0.21185857 -0.10592972 3.7240362 1.8795265e-38
0.21451232 -0.10599259 3.72384 1.9256246e-38
0.22251274 -0.10569351 3.7552617 1.6307419e-38
0.22538137 -0.10682012 3.7561524 1.6399615e-38
0.2282251 -0.10735477 3.754488 1.7505243e-38
0.23156521 -0.10589124 3.7617702 1.7320495e-38
0.23658402 -0.11049685 3.7979758 1.7227191e-38
0.23781523 -0.11021125 3.790905 1.6584006e-38
0.24377969 -0.10903836 3.8129387 1.6951321e-38
0.2482128 -0.10863592 3.8133323 1.667438e-38
0.24959245 -0.1069267 3.8064036 1.6768759e-38
0.2766996 -0.11006052 3.8286471 1.7232262e-38
0.27919936 -0.11141036 3.8296056 1.6955676e-38
0.27918249 -0.11122906 3.7902818 1.7232616e-38
0.32108489 -0.10821528 3.8550367 1.9350978e-38
0.32692641 -0.10773994 3.8458867 1.9166229e-38
0.3211267 -0.10418522 3.6783488 1.6401068e-38
0.32322904 -0.10397012 3.6765904 1.6308872e-38
0.32780048 -0.10566697 3.6782615 1.6216676e-38
0.33726063 -0.10595438 3.6971033 1.6031928e-38
0.34061649 -0.10541811 3.6939344 1.5847179e-38
0.35318562 -0.10770871 3.728174 1.6123766e-38
0.35561472 -0.10744475 3.7275972 1.5754984e-38
0.35783419 -0.10715936 3.727689 1.5201808e-38
0.36027643 -0.10556094 3.7286918 1.4831946e-38
0.3650119 -0.10572959 3.738353 1.4095818e-38
0.36519641 -0.10417778 3.726136 1.1052646e-38
0.36979413 -0.10710645 3.746407 1.3542286e-38
0.37343892 -0.10606214 3.7538478 1.2805082e-38
0.37829158 -0.10640769 3.7552044 1.1607259e-38
0.38061345 -0.1059255 3.7554076 1.0409798e-38
0.38247061 -0.1063667 3.7566583 9.8562696e-39
0.38549855 -0.10698307 3.7585194 7.0000029e-39
0.38930172 -0.107324 3.7612264 7.8294147e-39
0.38945362 -0.10627007 3.7491386 7.2747905e-39
0.39304337 -0.10776076 3.756382 7.8290461e-39
0.39789808 -0.10698432 3.7670515 8.19783e-39
0.40081596 -0.10696138 3.7679822 8.4733365e-39
0.40114203 -0.10563532 3.7558224 9.302014e-39
0.40429974 -0.10742781 3.7740128 8.5644433e-39
0.41523337 -0.10665693 3.7636108 1.1604722e-38
0.41878694 -0.10582723 3.7556155 1.2433754e-38
0.42085245 -0.10577121 3.7514081 1.2618141e-38
0.42406425 -0.10694069 3.753608 1.2526665e-38
0.42499152 -0.10722294 3.747123 1.2710699e-38
0.42611465 -0.10646988 3.7367153 1.2802539e-38
0.42735043 -0.10592151 3.7308733 1.3447914e-38
0.43823597 -0.10439129 3.7230446 1.4186921e-38
0.44157881 -0.10464015 3.7237213 1.4095085e-38
0.44586128 -0.10436229 3.730691 1.400325e-38
0.44553742 -0.10466885 3.7212794 1.3910337e-38
0.44729471 -0.1049544 3.7194812 1.4185845e-38
0.45366976 -0.10391092 3.7254493 1.4647902e-38
0.4539569 -0.10483017 3.7167373 1.4739018e-38
0.45572916 -0.1040755 3.7179179 1.4554984e-38
0.45812076 -0.10537288 3.7141426 1.5385104e-38
0.45957252 -0.10565958 3.7087328 1.409617e-38
0.46566078 -0.10638318 3.7204771 1.5569854e-38
0.46836942 -0.10697123 3.7221789 1.4372397e-38
0.47102034 -0.10706836 3.7251203 1.4280563e-38
0.47246629 -0.10654194 3.7152638 1.5201792e-38
0.47341874 -0.10512793 3.7079005 1.4464591e-38
0.47548178 -0.10416297 3.7084455 1.4188007e-38
0.48804659 -0.10556943 3.7544687 1.5201436e-38
0.48849261 -0.10450467 3.7451513 1.5109239e-38
0.48765138 -0.1061045 3.7264845 1.5569859e-38
0.48705527 -0.10475609 3.7054982 1.5202515e-38
0.49024126 -0.10472165 3.7067707 1.54791e-38
0.49395469 -0.10503463 3.7110763 1.5386183e-38
0.49698082 -0.10445512 3.7105875 1.5570577e-38
0.49930349 -0.10404401 3.7130435 1.5570576e-38
0.50298488 -0.10480624 3.7086186 1.6123749e-38
0.50490767 -0.10421651 3.7052901 1.4003254e-38
0.5070436 -0.10432106 3.7034078 1.5109246e-38
0.51005536 -0.10463562 3.7052782 1.5939001e-38
0.51304507 -0.10441542 3.7068369 1.5846806e-38
0.51599169 -0.10414757 3.7076108 1.5662774e-38
0.51903379 -0.10382675 3.7092071 1.538583e-38
0.5240317 -0.10419206 3.7167368 1.5939364e-38
0.54706609 -0.10634612 3.7723677 1.5568394e-38
0.5495562 -0.10612247 3.7715163 1.5753145e-38
0.55353439 -0.10551448 3.7758605 1.5384361e-38
0.55761212 -0.10655206 3.7898436 1.5384361e-38
0.55788702 -0.10258391 3.7213235 1.6124833e-38
0.56140494 -0.10183702 3.7264507 1.6400698e-38
0.56645155 -0.10289802 3.735255 1.6401058e-38
0.57018805 -0.10301903 3.6890056 1.5386912e-38
0.57196802 -0.10149443 3.6903934 1.7506328e-38
0.57772821 -0.10376437 3.7027311 1.510997e-38
0.57779294 -0.10243291 3.6941233 1.5017774e-38
0.58325166 -0.10127112 3.7083063 1.8797071e-38
0.58650535 -0.10321738 3.7179487 1.6769486e-38
0.58915746 -0.10163888 3.7162132 1.7045708e-38
0.59222126 -0.10133981 3.7169669 1.6953513e-38
0.59545326 -0.10172817 3.7181942 1.5663143e-38
0.59934402 -0.10010802 3.7188385 1.695423e-38
0.61290944 -0.10687842 3.7879937 1.6951341e-38
0.61486256 -0.10625716 3.7834179 1.7320481e-38
0.61499405 -0.10654482 3.7762046 1.7135731e-38
0.6267305 -0.10714126 3.8073134 1.6402142e-38
0.62390453 -0.10644835 3.7867565 1.6675113e-38
0.62312651 -0.10645241 3.7780857 1.6675111e-38
0.62062132 -0.10211014 3.7281518 1.7505961e-38
0.62258971 -0.10187618 3.7270961 1.6677645e-38
0.62572539 -0.10352151 3.7368574 1.6678003e-38
0.62892205 -0.10304318 3.7397773 1.6401417e-38
0.62867475 -0.10220073 3.7303362 1.6124833e-38
0.63396329 -0.10369088 3.7405491 1.6401419e-38
0.63584274 -0.1042743 3.7375617 1.6309224e-38
0.637344 -0.10341183 3.727201 1.6032993e-38
0.63721776 -0.10197862 3.7182267 1.5571655e-38
0.63669813 -0.10098318 3.697722 1.5570574e-38
0.63945407 -0.10182258 3.6976857 1.5293982e-38
0.64525682 -0.1027622 3.7051089 1.5109589e-38
0.64685667 -0.1024922 3.7009883 1.4463136e-38
0.64879858 -0.10227095 3.6965744 1.5385788e-38
-0.19714649 -0.10328076 3.6805851 1.0776428e-38
-0.19408096 -0.1063402 3.6879206 1.0313631e-38
-0.19177777 -0.10627681 3.6933749 1.0036684e-38
-0.18803576 -0.10827474 3.6922343 1.1789498e-38
-0.18471488 -0.10634398 3.7014582 8.8424904e-39
-0.16481732 -0.10487868 3.6727736 1.0500189e-38
-0.15654604 -0.10530359 3.6789644 1.1881311e-38
-0.1539838 -0.10529797 3.6806135 1.0867892e-38
-0.15085244 -0.1046951 3.6820848 1.3909595e-38
0.087324835 -0.10732712 3.7680426 6.9074471e-39
0.093328826 -0.10795723 3.7594173 9.3959809e-39
0.097300351 -0.10885976 3.7730105 8.0130674e-39
0.098849267 -0.10888366 3.7721424 7.9212319e-39
0.10044383 -0.10810737 3.7668262 8.5655223e-39
0.1031655 -0.10871668 3.7708333 8.7491961e-39
0.10667983 -0.10801436 3.7806072 1.0315066e-38
0.10821339 -0.10824367 3.7758036 1.0776038e-38
0.11079562 -0.10708901 3.7752712 1.142033e-38
0.11501653 -0.10634256 3.7789726 1.2064614e-38
0.11877836 -0.10667464 3.7832785 1.0406537e-38
0.12066401 -0.10517553 3.7809119 1.3723773e-38
0.12422719 -0.10918626 3.7913828 1.2157517e-38
0.14349988 -0.10440792 3.7557671 1.5015594e-38
0.14829643 -0.10627506 3.7613454 1.5291821e-38
0.14975874 -0.10376312 3.7406361 1.4738651e-38
0.15227033 -0.1047848 3.7394748 1.5384019e-38
0.15601017 -0.10563023 3.747792 1.5476218e-38
0.15797217 -0.10540765 3.7434175 1.5292905e-38
0.16100174 -0.10447457 3.7435973 1.5476939e-38
0.16406025 -0.10442092 3.7446246 1.5753522e-38
0.16674583 -0.10606559 3.740401 1.5568771e-38
0.17012146 -0.10600431 3.7413177 1.5384381e-38
0.17220643 -0.10403767 3.7300167 1.3817396e-38
0.1715131 -0.10453017 3.7130253 1.4738277e-38
0.17727488 -0.10511292 3.7308986 1.6951695e-38
0.18118887 -0.10413852 3.7414017 1.6859144e-38
0.18392283 -0.10286754 3.74073 1.5015598e-38
0.18485452 -0.10367189 3.7367289 1.7043894e-38
0.18804593 -0.10409456 3.7378671 1.69517e-38
0.19081138 -0.10299375 3.7349391 1.5291829e-38
0.19326855 -0.10532088 3.7337596 1.5937193e-38
0.19639683 -0.10417697 3.7379515 1.5107439e-38
0.1969256 -0.10542815 3.7353206 1.5846078e-38
0.20158775 -0.10450442 3.7439644 1.7136095e-38
0.20511283 -0.10473493 3.7421808 1.6123388e-38
0.20826586 -0.10455311 3.7455165 1.7320845e-38
0.21104033 -0.10194898 3.7308009 1.6859882e-38
0.21347991 -0.10107025 3.731252 1.7320859e-38
0.21418558 -0.10340024 3.7230737 1.9256246e-38
0.21779084 -0.10373501 3.73276 1.6492167e-38
0.22252187 -0.10402571 3.7571962 1.7413046e-38
0.2259744 -0.10465918 3.7588506 1.741233e-38
0.22863954 -0.10322592 3.759753 1.7320137e-38
0.24590999 -0.10696016 3.812592 1.7044601e-38
0.2479348 -0.10747554 3.8115165 1.667474e-38
0.25110555 -0.10547177 3.8153689 1.6767297e-38
0.27391142 -0.1083893 3.7826974 1.7323377e-38
0.32079437 -0.10609283 3.8515584 1.9443173e-38
0.31683865 -0.10767571 3.8053935 1.9535726e-38
0.32043529 -0.10674409 3.8098109 1.5666371e-38
0.31476057 -0.10161854 3.6648138 1.6308153e-38
0.3274951 -0.10277724 3.6781714 1.6031926e-38
0.3296954 -0.10259645 3.674319 1.6123762e-38
0.33793351 -0.10308141 3.6922374 1.5755705e-38
0.34074706 -0.10313791 3.6935232 1.5479479e-38
0.3499282 -0.10471381 3.7219484 1.5662789e-38
0.35164735 -0.10378643 3.7232788 1.5754984e-38
0.35699603 -0.10403357 3.7385364 1.5294366e-38
0.35774148 -0.10288541 3.7291424 1.5016697e-38
0.36157423 -0.10289041 3.7339015 1.4279492e-38
0.36597902 -0.10315986 3.7423456 1.3542647e-38
0.36576074 -0.10172173 3.7448685 1.2897641e-38
0.37030929 -0.10302027 3.7488704 1.1423597e-38
0.3728354 -0.10341842 3.7511346 1.0687109e-38
0.37690786 -0.103832 3.7584078 9.0250558e-39
0.38072795 -0.10304817 3.7576044 7.1847529e-39
0.38176036 -0.10376594 3.7536802 8.6577334e-39
0.38530013 -0.10439538 3.7574391 8.013443e-39
0.38861015 -0.10417891 3.7569757 7.2762423e-39
0.39128301 -0.1037877 3.7561479 7.9205229e-39
0.39364737 -0.10408863 3.7570651 8.2893068e-39
0.39719987 -0.104401 3.7617748 8.8424792e-39
0.39911735 -0.10379162 3.7586858 9.302014e-39
0.4004395 -0.10245479 3.7417073 1.0684223e-38
0.40542457 -0.1023413 3.7776437 1.132851e-38
0.41039142 -0.10260621 3.7944374 1.1053721e-38
0.41416934 -0.1029621 3.7943256 1.1145197e-38
0.41466027 -0.10156987 3.7836161 1.1421782e-38
0.41576323 -0.10391546 3.7666824 1.2341212e-38
0.41764882 -0.10236883 3.7485003 1.2710342e-38
0.4177672 -0.10333452 3.738034 1.2710338e-38
0.42251611 -0.10462625 3.7465272 1.2711055e-38
0.42504132 -0.10363467 3.7503438 1.2802893e-38
0.42595044 -0.1038964 3.7363682 1.2158272e-38
0.42695278 -0.10345289 3.7280574 1.2343019e-38
0.43546036 -0.10150341 3.7789474 1.3264236e-38
0.44634235 -0.10348468 3.7855787 1.4369872e-38
0.44832885 -0.10177197 3.7863159 1.4370232e-38
0.44448045 -0.10165286 3.7252212 1.3818503e-38
0.44783947 -0.10118917 3.7155473 1.4002534e-38
0.44908091 -0.10051764 3.7085419 1.46479e-38
0.45319369 -0.10166165 3.721689 1.4555708e-38
0.45356977 -0.1017081 3.7128007 1.3266409e-38
0.45654181 -0.10099716 3.7235525 1.4739737e-38
0.45874214 -0.1025558 3.7128088 1.4924486e-38
0.46045145 -0.10262629 3.708859 1.5385821e-38
0.46406895 -0.10220186 3.7151611 1.5016681e-38
0.46775451 -0.10307079 3.7220664 1.5201074e-38
0.46917 -0.1023305 3.7098408 1.5385464e-38
0.4725287 -0.10408168 3.7147169 1.4925566e-38
0.47593284 -0.10241892 3.7186208 1.4647902e-38
0.47591975 -0.10083897 3.7097683 1.4279482e-38
0.4786979 -0.10061064 3.7104788 1.4279841e-38
0.48353761 -0.10071027 3.7238662 1.5385107e-38
0.48656249 -0.10337339 3.7213271 1.4187649e-38
0.4875856 -0.1029434 3.7128727 1.501777e-38
0.49025542 -0.10190342 3.7114723 1.4280205e-38
0.49305445 -0.10152803 3.7126398 1.5201433e-38
0.49955884 -0.1011852 3.7213469 1.6123749e-38
0.50395381 -0.10065031 3.7311106 1.4741183e-38
0.50205648 -0.10008983 3.721267 1.5754967e-38
0.50246578 -0.10135382 3.6946995 1.5939359e-38
0.50678718 -0.10149173 3.7024205 1.6031198e-38
0.50916713 -0.10160396 3.7018852 1.5939364e-38
0.51282364 -0.10118465 3.7069912 1.5754972e-38
0.51565903 -0.101207 3.7078838 1.6123395e-38
0.51830596 -0.10053976 3.7089806 1.6123752e-38
0.52141124 -0.10148869 3.7091095 1.6031199e-38
0.54831511 -0.10289296 3.7800729 1.6030091e-38
0.5527001 -0.10245902 3.7820141 1.6582187e-38
0.55430621 -0.10263838 3.780231 1.6213763e-38
0.57947075 -0.10028033 3.6993244 1.6585456e-38
0.58165389 -0.097243771 3.7010925 1.861304e-38
0.58530265 -0.098789692 3.7054389 1.8981461e-38
0.58783603 -0.098208405 3.7092876 1.7138624e-38
0.59002632 -0.097898878 3.7075651 1.4372385e-38
0.59796554 -0.09829168 3.7207601 1.4740809e-38
0.5985412 -0.098389968 3.7144537 1.6861676e-38
0.60277498 -0.098768912 3.718622 1.4279833e-38
0.61773187 -0.10401497 3.799875 1.5479111e-38
0.61697352 -0.10475982 3.7813587 1.7136449e-38
0.62795144 -0.10544889 3.8121748 1.5942243e-38
0.62549877 -0.10450431 3.7969639 1.6217751e-38
0.62957376 -0.10525448 3.7971854 1.6125195e-38
0.62051845 -0.10047013 3.728977 1.5294361e-38
0.62116474 -0.099830113 3.722512 1.7505961e-38
0.62684679 -0.10120115 3.7407842 1.6954232e-38
0.62897283 -0.10052472 3.7398517 1.6677643e-38
0.63008386 -0.10072631 3.7342248 1.6216667e-38
0.63297743 -0.10020386 3.7371018 1.6493255e-38
0.63566184 -0.099911585 3.7366223 1.6585088e-38
0.63830894 -0.10103724 3.7379947 1.612447e-38
0.63942271 -0.099424914 3.726634 1.5663489e-38
0.64137155 -0.1009099 3.7204475 1.5479097e-38
0.63987213 -0.099093564 3.6991677 1.5201787e-38
0.64680105 -0.099369034 3.7067466 1.5016669e-38
0.64826512 -0.099698231 3.7035768 1.4278737e-38
0.65002853 -0.099402376 3.7004592 1.5108839e-38
-0.19977103 -0.10005622 3.6813982 1.0684593e-38
-0.19506934 -0.10131858 3.6902709 1.132888e-38
-0.19195072 -0.10317086 3.702035 9.7600957e-39
-0.17933382 -0.10511262 3.6869967 9.5796939e-39
-0.17506167 -0.099799737 3.6716766 1.2341579e-38
-0.17309658 -0.10163818 3.6659544 1.0590209e-38
-0.17043008 -0.1026043 3.6718938 1.0129954e-38
-0.16431221 -0.10215286 3.6785364 9.8555577e-39
-0.16194978 -0.10296277 3.67996 1.031582e-38
-0.15978609 -0.10233447 3.6750176 1.2158254e-38
-0.15656121 -0.1029694 3.6814039 1.1604021e-38
-0.15391506 -0.10278232 3.6785586 1.2802903e-38
-0.15089914 -0.10311881 3.6782234 1.4370564e-38
-0.14860088 -0.10330566 3.6762967 1.556945e-38
0.081816852 -0.10442117 3.7473948 8.4751134e-39
0.084869698 -0.10455369 3.7493351 7.3684155e-39
0.087148622 -0.10471112 3.7693481 5.5263232e-39
0.089403503 -0.10518394 3.7620046 6.8156145e-39
0.092647158 -0.10448115 3.7548392 7.6450108e-39
0.095959783 -0.10394056 3.7586691 7.1833194e-39
0.098029926 -0.1033973 3.7564662 1.3078785e-38
0.099656709 -0.1052649 3.7612855 8.0127171e-39
0.10277527 -0.10395554 3.7667193 8.4729708e-39
0.10364853 -0.10451105 3.770735 8.1967356e-39
0.10664709 -0.10412867 3.7718854 1.0683848e-38
0.11672676 -0.10194693 3.786552 1.1510718e-38
0.1197762 -0.10276192 3.7869165 1.2248642e-38
0.12540212 -0.10399852 3.8108127 1.2524147e-38
0.12859742 -0.10633407 3.8123772 1.2709254e-38
0.14488457 -0.10288426 3.7513835 1.510779e-38
0.14828502 -0.10356873 3.7535462 1.4184739e-38
0.15098658 -0.10244317 3.7499192 1.4739009e-38
0.1533633 -0.10269045 3.7474492 1.4831566e-38
0.15538417 -0.10194801 3.7432005 1.5015958e-38
0.156468 -0.10045554 3.733485 1.501596e-38
0.15953769 -0.10101137 3.733582 1.5200714e-38
0.16402818 -0.10171124 3.7391238 1.5660972e-38
0.16662212 -0.10202107 3.7364922 1.5476579e-38
0.1692712 -0.1019834 3.7359445 1.6490721e-38
0.17187828 -0.10244915 3.7300084 1.4369851e-38
0.17411034 -0.10265499 3.7361307 1.5661326e-38
0.17683846 -0.10164493 3.7283325 1.4830836e-38
0.18008433 -0.10260917 3.734268 1.584536e-38
0.18358064 -0.10156218 3.738451 1.7043538e-38
0.18584105 -0.10309833 3.7412493 1.7043897e-38
0.18908802 -0.10164703 3.743494 1.7228289e-38
0.19214758 -0.099531718 3.7428041 1.7227933e-38
0.19381353 -0.10106729 3.7357194 1.6951702e-38
0.19504751 -0.10091779 3.7400751 1.6952062e-38
0.19969948 -0.10089292 3.7476916 1.6214143e-38
0.20139721 -0.10202807 3.7439532 1.6306338e-38
0.20418368 -0.10202036 3.7454019 1.6399616e-38
0.20801541 -0.10131954 3.7470095 1.630778e-38
0.2107579 -0.10186709 3.7424734 1.6123029e-38
0.21474935 -0.10337748 3.7495351 1.649181e-38
0.21726997 -0.10354296 3.748708 1.6399975e-38
0.2190899 -0.10218298 3.743114 1.6307778e-38
0.22284527 -0.10315707 3.7536886 1.7412689e-38
0.22523433 -0.10149649 3.7562063 1.7228659e-38
0.22613363 -0.10046623 3.7553513 1.6676204e-38
0.23671229 -0.10463917 3.8027632 1.6950964e-38
0.24480708 -0.10537419 3.8094091 1.7136797e-38
0.25039661 -0.104149 3.8271432 1.6767657e-38
0.25277594 -0.10418875 3.8242562 1.6675462e-38
0.27017912 -0.10421652 3.788605 1.7413388e-38
0.27492142 -0.10186548 3.8015528 1.778181e-38
0.28214732 -0.10091042 3.7102144 1.7875808e-38
0.2866247 -0.099630617 3.7172959 1.7875451e-38
0.29257441 -0.10150868 3.700623 1.7966569e-38
0.30841947 -0.10085768 3.6926532 1.6310667e-38
0.31524342 -0.099025883 3.6671844 1.6308873e-38
0.31727567 -0.098775819 3.6650321 1.6124482e-38
0.31961015 -0.098951288 3.6582904 1.6124123e-38
0.34087798 -0.10079858 3.6940732 1.5571315e-38
0.3512153 -0.098018296 3.7297199 1.3543372e-38
0.35532632 -0.10033432 3.7393467 1.4188018e-38
0.35694692 -0.10059977 3.7328815 1.4648998e-38
0.35988757 -0.10243369 3.7352939 1.4464604e-38
0.36340365 -0.10175391 3.740823 1.3543007e-38
0.36502364 -0.10074665 3.7352462 1.2805801e-38
0.36817387 -0.099652611 3.7448251 1.1514705e-38
0.36828744 -0.097522981 3.7365942 1.0593109e-38
0.37230706 -0.098187231 3.7408185 9.5807547e-39
0.37514922 -0.099551082 3.7412522 9.5796771e-39
0.37868026 -0.099241063 3.7462592 8.4736953e-39
0.38248476 -0.10074444 3.7530847 7.8297664e-39
0.38448632 -0.10174844 3.7535973 7.7372134e-39
0.38859206 -0.10172291 3.7588124 7.2765968e-39
0.39184672 -0.098335795 3.7541471 9.2094596e-39
0.39522994 -0.10206611 3.7633996 9.2098226e-39
0.3971253 -0.10172438 3.7609627 9.3938523e-39
0.39970529 -0.10155049 3.7605221 1.0222888e-38
0.40238994 -0.10182766 3.7634816 1.0867895e-38
0.40600047 -0.1005103 3.7799144 1.1420344e-38
0.40713388 -0.10190876 3.772182 1.1420346e-38
0.41013694 -0.10197638 3.775012 1.1697647e-38
0.4115065 -0.10275307 3.7650542 1.2157542e-38
0.41305536 -0.10207871 3.7590983 1.2249736e-38
0.41482848 -0.099978209 3.7319531 1.3079122e-38
0.41752329 -0.10031508 3.7303729 1.2895806e-38
0.41829753 -0.10124245 3.7223926 1.2249386e-38
0.42374882 -0.10147753 3.733454 1.3172396e-38
0.42113063 -0.098779581 3.7111127 1.3448266e-38
0.42876595 -0.10166246 3.7325182 1.2340475e-38
0.44632441 -0.099794857 3.7844005 1.4278754e-38
0.44730884 -0.098999813 3.7138939 1.4370956e-38
0.44987863 -0.098633409 3.7149336 1.3357882e-38
0.45031878 -0.099483497 3.7053044 1.2158973e-38
0.45300597 -0.099338405 3.709631 1.4647902e-38
0.45614332 -0.097503789 3.7214274 1.4647544e-38
0.45930067 -0.099952661 3.7145193 1.4555345e-38
0.46215737 -0.099563099 3.7150719 1.5385105e-38
0.46627042 -0.099243112 3.7194152 1.2620311e-38
0.46954507 -0.099299759 3.722034 1.4924489e-38
0.46866024 -0.10000066 3.7058246 1.5109597e-38
0.4681603 -0.10002468 3.6911008 1.4372757e-38
0.47383344 -0.098130189 3.6936097 1.4464232e-38
0.4775258 -0.098430507 3.7147362 1.5201074e-38
0.47941047 -0.098413274 3.7137747 1.5200715e-38
0.47981161 -0.097289078 3.6980939 1.5569139e-38
0.48353389 -0.098043792 3.7020087 1.510888e-38
0.48788276 -0.10075025 3.7143593 1.335753e-38
0.48949462 -0.099481635 3.7125664 1.3634117e-38
0.49320108 -0.098422259 3.7156327 1.3634118e-38
0.49553803 -0.098426856 3.7143948 1.4741544e-38
0.49926671 -0.097047776 3.7189813 1.5662415e-38
0.49480677 -0.098482288 3.6643031 1.7321197e-38
0.50280339 -0.097485282 3.6878064 1.4095095e-38
0.50797433 -0.098182328 3.7063169 1.5847165e-38
0.50885516 -0.098882347 3.7018325 1.5754611e-38
0.51416254 -0.099065185 3.7134526 1.5846806e-38
0.5153603 -0.09833765 3.7068398 1.6030838e-38
0.51676047 -0.097346142 3.7040844 1.6215588e-38
0.52166218 -0.098205097 3.7128658 1.3633387e-38
0.5804224 -0.096958436 3.701097 1.6769843e-38
0.58116078 -0.095889568 3.6972046 1.4464225e-38
0.58453959 -0.096851468 3.6878598 1.4648255e-38
0.59106421 -0.097911753 3.6982694 1.4463864e-38
0.59615797 -0.095224194 3.7160707 1.4740808e-38
0.59778214 -0.095692545 3.7128749 1.658509e-38
0.60129207 -0.096189573 3.7141144 1.6953872e-38
0.61017781 -0.10107587 3.7663748 1.889034e-38
0.61433989 -0.10098887 3.7719512 1.6768389e-38
0.6161719 -0.10171137 3.7680714 1.6768027e-38
0.6175766 -0.098280832 3.7160797 1.5294359e-38
0.61928678 -0.098608196 3.714494 1.6493612e-38
0.625287 -0.097129509 3.7364979 1.6862036e-38
0.62846488 -0.097972766 3.7365174 1.6584732e-38
0.63244903 -0.09752658 3.7424417 1.5939005e-38
0.63443929 -0.098007917 3.7430251 1.6307426e-38
0.63833296 -0.097575754 3.7491829 1.5847527e-38
0.6389727 -0.097659223 3.7389607 1.6215586e-38
0.64007366 -0.097606212 3.7336001 1.6123391e-38
0.64223993 -0.09786059 3.7248759 1.566241e-38
0.64030796 -0.096708976 3.7002583 1.510887e-38
0.64644831 -0.09661039 3.7058136 1.5108141e-38
0.648588 -0.096755221 3.7050326 1.5108493e-38
0.65074921 -0.096443899 3.7028477 1.5662366e-38
-0.19726257 -0.099437214 3.6825294 1.1053012e-38
-0.1915749 -0.099237971 3.6824174 1.1420711e-38
-0.18813641 -0.097664475 3.692843 1.1329232e-38
-0.18544197 -0.097495295 3.693722 1.1328151e-38
-0.18322513 -0.097848967 3.6906524 1.1420346e-38
-0.18132877 -0.098330915 3.6837933 1.0225425e-38
-0.17354888 -0.099799313 3.6650028 1.059057e-38
-0.17022952 -0.10055808 3.6792932 9.946282e-39
-0.1647673 -0.10002537 3.6770101 9.9473932e-39
-0.16207954 -0.10069703 3.6779456 1.0499845e-38
-0.15979555 -0.10035583 3.6760988 1.1235608e-38
-0.15675034 -0.10022814 3.6767113 1.2801837e-38
-0.15412842 -0.10005929 3.6744802 1.4000356e-38
-0.15176755 -0.099886797 3.6686654 1.5199956e-38
0.078328475 -0.10210007 3.7405508 7.2780149e-39
0.081957087 -0.10185888 3.7473643 5.4330471e-39
0.082347624 -0.10044168 3.7345684 1.1512901e-38
0.087109149 -0.10137575 3.7617574 6.1713268e-39
0.089083798 -0.10187183 3.7540071 6.5386716e-39
0.091949448 -0.10204802 3.7551138 6.8152585e-39
0.09567748 -0.10087361 3.7671583 8.8410232e-39
0.09767428 -0.10081799 3.7644138 8.0116367e-39
0.10034271 -0.1006155 3.7635343 8.6566432e-39
0.10266872 -0.10062924 3.7638767 1.0222513e-38
0.10489274 -0.099899113 3.7590134 1.0130327e-38
0.10740696 -0.099388249 3.7590187 1.2249011e-38
0.11036024 -0.098748215 3.7608263 1.2617429e-38
0.11389005 -0.098206766 3.7636514 1.2064991e-38
0.11593871 -0.098949246 3.7555161 1.2526683e-38
0.12043916 -0.1003595 3.7658315 1.2802907e-38
0.12246457 -0.10047084 3.7608027 1.4276947e-38
0.1255516 -0.10094213 3.7631238 1.446098e-38
0.12955539 -0.10115706 3.7697089 1.5198901e-38
0.15003264 -0.09989427 3.7436247 1.510779e-38
0.1520758 -0.099664129 3.7371094 1.5015598e-38
0.15496191 -0.09852545 3.7334507 1.5292547e-38
0.15737583 -0.097904839 3.7332923 1.5293268e-38
0.16007328 -0.098430686 3.7303631 1.5385824e-38
0.16264814 -0.098930545 3.7298441 1.5569138e-38
0.16394332 -0.098895006 3.723597 1.5568775e-38
0.16831771 -0.10017711 3.7326894 1.5108514e-38
0.17281404 -0.099294141 3.7442117 1.5292907e-38
0.17483318 -0.099228062 3.7394505 1.5753523e-38
0.17785028 -0.10033756 3.740001 1.5753523e-38
0.18008792 -0.09935943 3.7355328 1.5937557e-38
0.18271747 -0.099577814 3.7377427 1.7136095e-38
0.18703969 -0.099369712 3.745358 1.7320848e-38
0.18982507 -0.09754467 3.7449841 1.4922674e-38
0.1920141 -0.097311184 3.7402489 1.7227929e-38
0.19481865 -0.097175516 3.742209 1.5107439e-38
0.19690284 -0.097866602 3.7375736 1.5015587e-38
0.19960672 -0.09750957 3.7382104 1.6860946e-38
0.20558144 -0.099297777 3.8013177 1.7226112e-38
0.20835465 -0.098557845 3.7364638 1.6215225e-38
0.21145126 -0.099461615 3.7415788 1.612267e-38
0.21474306 -0.099838838 3.7472999 1.6031195e-38
0.2166502 -0.10012687 3.7436135 1.612303e-38
0.22161283 -0.10098103 3.7884638 1.7135746e-38
0.22552107 -0.10157853 3.8052809 1.7688512e-38
0.2285178 -0.10120165 3.8071721 1.7780708e-38
0.23405282 -0.10207531 3.8133883 1.7411585e-38
0.26161608 -0.10002183 3.8374014 1.6952767e-38
0.26435086 -0.10014765 3.8376284 1.7505941e-38
0.26723346 -0.099811614 3.8395121 1.8059474e-38
0.26892021 -0.10016172 3.7941258 1.7966203e-38
0.27271295 -0.09972062 3.8002307 1.796656e-38
0.27522093 -0.10006274 3.79985 1.7506303e-38
0.27723187 -0.099081658 3.7994299 1.7229357e-38
0.28303924 -0.10043552 3.8133538 1.8242451e-38
0.28432655 -0.10079556 3.8030031 1.7965865e-38
0.2842243 -0.10112727 3.7850504 1.7966584e-38
0.28537512 -0.094846338 3.728508 1.6680524e-38
0.28819209 -0.09537667 3.7295368 1.6773079e-38
0.28937933 -0.09696921 3.7224104 1.6680168e-38
0.29046002 -0.098619699 3.7120328 1.6864197e-38
0.2961649 -0.09540002 3.7259469 1.7050023e-38
0.29741064 -0.095709674 3.7208302 1.6958188e-38
0.3014625 -0.095404245 3.7196488 1.6864916e-38
0.30127338 -0.097154975 3.7104468 1.7325175e-38
0.30501512 -0.095299117 3.7166958 1.6310667e-38
0.30749646 -0.094771557 3.7160981 1.6584359e-38
0.30835199 -0.098828323 3.7011764 1.5016683e-38
0.31636253 -0.096963719 3.6789467 1.6862762e-38
0.32066521 -0.097453557 3.6864622 1.6862399e-38
0.32329351 -0.09762381 3.6823123 1.6306692e-38
0.33328041 -0.098282956 3.6939459 1.5479114e-38
0.3358866 -0.098639324 3.700794 1.6124123e-38
0.33850864 -0.098628819 3.7037721 1.5939372e-38
0.34132901 -0.097784318 3.7038116 1.5755698e-38
0.34694439 -0.096505783 3.7215018 1.4649355e-38
0.35057807 -0.096066281 3.7275636 1.4095821e-38
0.35396647 -0.1002397 3.7298093 1.4648636e-38
0.35412866 -0.099014245 3.7170453 1.4740832e-38
0.3573505 -0.099312603 3.7199588 1.3266786e-38
0.36202425 -0.098526426 3.7452707 1.1792374e-38
0.36230281 -0.097290769 3.7205989 1.1791652e-38
0.36949897 -0.099166095 3.7603025 1.1238122e-38
0.37256289 -0.098504096 3.7630651 1.0132495e-38
0.37548423 -0.098862611 3.7661724 8.4747715e-39
0.37301865 -0.097178467 3.7238762 8.8421176e-39
0.37846088 -0.095333926 3.7378519 7.9201613e-39
0.37986654 -0.096232727 3.7344525 8.3814982e-39
0.38732997 -0.097044952 3.7570195 8.8406771e-39
0.38994178 -0.096954465 3.7567546 9.208738e-39
0.39206946 -0.095941342 3.7560387 8.471882e-39
0.3941049 -0.098041922 3.7562523 1.0406562e-38
0.39585197 -0.098933041 3.7539811 1.0407641e-38
0.40078753 -0.09907078 3.7669718 1.0869693e-38
0.40193218 -0.099215545 3.7603145 1.1236316e-38
0.40384838 -0.099056236 3.7553556 1.224831e-38
0.40425956 -0.10183585 3.7480793 1.2616735e-38
0.41125807 -0.09935037 3.7676361 9.6689804e-39
0.41253912 -0.10067101 3.7694695 1.1882034e-38
0.41475448 -0.098658741 3.7604644 1.289546e-38
0.41632408 -0.09878397 3.7570479 1.289546e-38
0.41706872 -0.097587451 3.72823 1.3171679e-38
0.42093873 -0.097616576 3.7322724 1.2803974e-38
0.42245507 -0.097061723 3.7274754 1.3264592e-38
0.42186016 -0.095577233 3.7113421 1.3632658e-38
0.42427453 -0.096126802 3.7112021 1.3632661e-38
0.44662502 -0.096495286 3.7109525 1.4094373e-38
0.44716647 -0.096661605 3.7020681 1.3541913e-38
0.44958377 -0.096218407 3.7012489 1.2619968e-38
0.45077237 -0.097121187 3.6949966 1.3634833e-38
0.4574945 -0.09519653 3.7274723 1.4832652e-38
0.45879054 -0.09568727 3.7253652 1.5016684e-38
0.46366236 -0.096750438 3.7170978 1.4003974e-38
0.46583921 -0.09488523 3.7164333 1.4831931e-38
0.46882027 -0.096988976 3.7180884 1.4649704e-38
0.46681333 -0.09689717 3.697037 1.4463873e-38
0.47066757 -0.096967719 3.7004673 1.4279841e-38
0.47198287 -0.095436797 3.6881433 1.2989095e-38
0.47570595 -0.095630601 3.6936171 1.5569501e-38
0.4795813 -0.094951399 3.7068801 1.5569497e-38
0.48088846 -0.094817773 3.70151 1.5477661e-38
0.48419315 -0.095591255 3.7027032 1.5201076e-38
0.48793605 -0.095637552 3.7052572 1.529327e-38
0.49087605 -0.096403182 3.7059302 1.5108523e-38
0.49250552 -0.095957026 3.7021 1.5662412e-38
0.49591762 -0.096154951 3.7045279 1.5107054e-38
0.49976289 -0.09443897 3.7223046 1.3358236e-38
0.50401819 -0.094968207 3.7050612 1.621523e-38
0.50262815 -0.09493877 3.6935697 1.6399619e-38
0.50835478 -0.09524627 3.7073269 1.6123393e-38
0.50637162 -0.096263617 3.6916747 1.5754608e-38
0.51493591 -0.095841348 3.7165995 1.4095441e-38
0.517681 -0.094781272 3.7183068 1.3450075e-38
0.51307446 -0.094079524 3.6706131 1.7781812e-38
0.52334446 -0.095622934 3.7271099 1.3449354e-38
0.52593565 -0.095889449 3.7244372 1.354155e-38
0.5571174 -0.098180033 3.7693412 1.6581469e-38
0.56166399 -0.098535381 3.7729378 1.6028657e-38
0.56471074 -0.098787375 3.777848 1.6120854e-38
0.58042926 -0.094837308 3.7004678 1.6769843e-38
0.58230644 -0.093943536 3.6994894 1.723046e-38
0.58410585 -0.094895124 3.6944294 1.7231179e-38
0.58537203 -0.094953015 3.6906078 1.4648612e-38
0.58766031 -0.09488555 3.6898122 1.4740808e-38
0.59519458 -0.093413256 3.6998701 1.5386556e-38
0.6005578 -0.092879541 3.7139664 1.6954592e-38
0.61042398 -0.096103251 3.7669568 1.4464581e-38
0.61625993 -0.096795633 3.7781956 1.6492165e-38
0.61870468 -0.096904263 3.7813971 1.5386556e-38
0.61277163 -0.094073318 3.7140124 1.4187637e-38
0.61992723 -0.094515346 3.7231061 1.6953872e-38
0.62229359 -0.093943402 3.7208424 1.4096162e-38
0.62493014 -0.093969807 3.7314181 1.6585448e-38
0.62870312 -0.095703617 3.736532 1.6399979e-38
0.63062626 -0.095366351 3.7346478 1.5754614e-38
0.63529503 -0.095077068 3.7438354 1.6399977e-38
0.63662785 -0.095289148 3.7449734 1.5754971e-38
0.63994527 -0.095199801 3.7407408 1.6031556e-38
0.64017272 -0.094496541 3.7321374 1.5847162e-38
0.64157611 -0.094878621 3.7228184 1.547766e-38
0.64093214 -0.093807332 3.7011614 1.510779e-38
0.64635873 -0.093709372 3.7057765 1.4923747e-38
0.64793313 -0.093901619 3.7032454 1.5293242e-38
0.64996964 -0.093595989 3.6996086 1.6767626e-38
-0.19747774 -0.096726663 3.6825709 1.1237403e-38
-0.19493067 -0.097736858 3.6832836 9.9452072e-39
-0.19210154 -0.099153817 3.67837 9.8522899e-39
-0.18890457 -0.097061895 3.6871135 1.0221431e-38
-0.18660548 -0.096231341 3.6824379 9.4878598e-39
-0.18359278 -0.095605679 3.6854782 9.7640866e-39
-0.16842884 -0.098616764 3.6779599 9.3949425e-39
-0.16514014 -0.097085565 3.6706305 1.1328499e-38
-0.16302341 -0.097148284 3.677917 1.0960454e-38
-0.15950771 -0.097942322 3.6741714 1.2064635e-38
-0.15403326 -0.097478919 3.6734099 1.4829025e-38
-0.15203796 -0.09737777 3.6618621 1.6028987e-38
0.079749234 -0.097605325 3.7313676 5.065345e-39
0.082061715 -0.097760618 3.7339461 5.7103515e-39
0.086005658 -0.097465977 3.7525737 6.7227e-39
0.088184692 -0.0992373 3.7482162 6.6312274e-39
0.091036908 -0.098892763 3.7521014 6.9996484e-39
0.093664557 -0.098665826 3.7554855 8.841382e-39
0.096756928 -0.097875945 3.7585206 8.1953091e-39
0.098759845 -0.096109323 3.7653744 9.5771561e-39
0.10256819 -0.098909713 3.7666242 8.4722575e-39
0.10696914 -0.095810637 3.7597203 1.1142315e-38
0.10828219 -0.096454374 3.7468932 1.1234874e-38
0.11224604 -0.097798437 3.7576859 1.3354273e-38
0.11416209 -0.095786802 3.756011 1.2525966e-38
0.11809189 -0.097751327 3.760855 1.298694e-38
0.11944611 -0.096568234 3.7525363 1.3079133e-38
0.1215639 -0.095646456 3.7485456 1.3263886e-38
0.12573975 -0.09710712 3.7584581 1.3721959e-38
0.12983842 -0.097914875 3.7712948 1.5751357e-38
0.1303428 -0.099096075 3.7620597 1.5750998e-38
0.13365522 -0.098266304 3.7673428 1.5843911e-38
0.13613324 -0.096564651 3.7543123 1.510779e-38
0.13775942 -0.096924886 3.74575 1.4923398e-38
0.1403868 -0.095860951 3.7377272 1.5292182e-38
0.15210748 -0.09697964 3.7387931 1.5476932e-38
0.15507327 -0.096417345 3.7400246 1.5845716e-38
0.15662105 -0.096517801 3.7329235 1.5661689e-38
0.15998629 -0.09690059 3.734287 1.5661692e-38
0.1636361 -0.096711032 3.7364359 1.5477295e-38
0.16491206 -0.096863002 3.7290833 1.5660973e-38
0.16835758 -0.097350858 3.7320452 1.5384384e-38
0.17152278 -0.096785471 3.733254 1.6767674e-38
0.17459643 -0.097248368 3.7367465 1.6583643e-38
0.17838691 -0.097229518 3.7414939 1.6491084e-38
0.18073328 -0.096816882 3.7403288 1.6952064e-38
0.18361987 -0.09452264 3.7414587 1.5015245e-38
0.18553811 -0.09483742 3.7361732 1.5107439e-38
0.18913378 -0.094063915 3.7412736 1.51078e-38
0.19226906 -0.094772071 3.7427471 1.7321205e-38
0.19480085 -0.094560586 3.7396395 1.7229011e-38
0.19737364 -0.095963269 3.7369826 1.6122307e-38
0.20062253 -0.096264474 3.7413514 1.6029037e-38
0.21638928 -0.098990619 3.7913082 1.731942e-38
0.21736909 -0.096217141 3.7739494 1.6584009e-38
0.22685957 -0.097965851 3.8013494 1.7411226e-38
0.23039001 -0.097047292 3.8065557 1.6951684e-38
0.24426055 -0.0989125 3.826545 1.7597058e-38
0.24716109 -0.10062569 3.8253903 1.7413025e-38
0.26058096 -0.099500433 3.807843 1.7782528e-38
0.26276526 -0.098297469 3.8072736 1.7598135e-38
0.26417342 -0.099091195 3.8045909 1.9627902e-38
0.26394323 -0.093608476 3.7478523 1.8247126e-38
0.26841214 -0.097018629 3.7921755 1.824279e-38
0.27125779 -0.096792944 3.7931166 1.759814e-38
0.27411374 -0.097148694 3.7937636 1.7414108e-38
0.27519485 -0.096032135 3.7764447 1.538618e-38
0.27690154 -0.09607286 3.7587535 1.59408e-38
0.28021154 -0.095805518 3.7627871 1.7510277e-38
0.28386006 -0.094053999 3.7280667 1.6404299e-38
0.28839165 -0.093313575 3.7308939 1.6588686e-38
0.29111359 -0.093796499 3.7321434 1.6496132e-38
0.29003045 -0.094739921 3.7225246 1.6956751e-38
0.29444593 -0.093943588 3.7305405 1.6587969e-38
0.29615214 -0.094560102 3.7261486 1.6772e-38
0.29840302 -0.094013073 3.7239122 1.4834094e-38
0.30244303 -0.093498759 3.7280548 1.6773436e-38
0.30441594 -0.094192646 3.7128394 1.4925926e-38
0.30718151 -0.091935351 3.7162673 1.61241e-38
0.31678566 -0.094289191 3.6843691 1.6309231e-38
0.31937817 -0.094355069 3.6822186 1.6676931e-38
0.32454646 -0.09591081 3.6993222 1.6492902e-38
0.32776222 -0.096459553 3.7023094 1.5571306e-38
0.33603007 -0.095059529 3.7056327 1.5478753e-38
0.34038076 -0.096328661 3.7125978 1.5294363e-38
0.34116295 -0.095058732 3.7052853 1.5109972e-38
0.34514228 -0.095412254 3.710032 1.4833386e-38
0.34735259 -0.09528368 3.7092948 1.3451535e-38
0.35183328 -0.096474744 3.7176955 1.4188019e-38
0.36065987 -0.093656607 3.7425606 1.0777862e-38
0.36534843 -0.093324348 3.7552414 8.658811e-39
0.37064561 -0.096630469 3.7639744 9.1190591e-39
0.37303495 -0.095948339 3.7660441 8.6584424e-39
0.37592125 -0.096055418 3.767164 8.3818556e-39
0.37398988 -0.094903313 3.7289703 5.9858538e-39
0.3801184 -0.095447294 3.7431829 5.6174328e-39
0.38439691 -0.094681516 3.749907 8.7484815e-39
0.38831025 -0.095823877 3.7605858 9.023988e-39
0.38958704 -0.094934277 3.7563288 9.5768002e-39
0.3909426 -0.093869641 3.7511532 8.471889e-39
0.39349005 -0.09563145 3.752836 1.0959372e-38
0.39554697 -0.095756009 3.7538218 1.1235959e-38
0.39648154 -0.095590115 3.7486017 8.8406673e-39
0.39908421 -0.095963433 3.748667 9.3924005e-39
0.40060878 -0.096393108 3.7433429 1.0777134e-38
0.40486917 -0.096614905 3.7502043 1.2066423e-38
0.40746441 -0.0966179 3.7504375 9.7611747e-39
0.41068327 -0.09775003 3.7527256 1.2435563e-38
0.41504365 -0.095789619 3.7606936 1.3172772e-38
0.41715199 -0.094929338 3.7600617 1.2711433e-38
0.4177866 -0.095733359 3.7299738 1.3172037e-38
0.42211738 -0.095673218 3.7348852 1.114518e-38
0.42378578 -0.094883449 3.7299261 1.3540463e-38
0.42417574 -0.093763046 3.7193489 1.4277672e-38
0.42478392 -0.094126746 3.7144642 1.2434118e-38
0.44443882 -0.095403738 3.7069168 1.372559e-38
0.44736132 -0.095038436 3.7020113 1.4831577e-38
0.44845459 -0.095187739 3.6970763 1.363519e-38
0.45118752 -0.094670013 3.6955934 1.4647903e-38
0.45707175 -0.093352698 3.7265725 1.4924489e-38
0.45853648 -0.093205579 3.7242224 1.5200717e-38
0.46078283 -0.093742795 3.7075689 1.5016683e-38
0.46221885 -0.093198717 3.7043099 1.4832293e-38
0.46724391 -0.093776807 3.70561 1.510888e-38
0.46842062 -0.09228573 3.6986642 1.5385104e-38
0.47438234 -0.093479834 3.7114966 1.4924496e-38
0.47544476 -0.092902161 3.7034049 1.3448996e-38
0.47741184 -0.092634521 3.7005095 1.381815e-38
0.48187509 -0.092362493 3.7162108 1.5569498e-38
0.48147821 -0.092690788 3.7043593 1.5662052e-38
0.48596194 -0.092291459 3.7045932 1.5385827e-38
0.48767239 -0.092542984 3.7016881 1.5109239e-38
0.49207476 -0.092377648 3.7106977 1.5385111e-38
0.49361986 -0.093498304 3.7083156 1.5385831e-38
0.49588764 -0.093768805 3.7050085 1.5662415e-38
0.50061947 -0.093371466 3.7139108 1.5847167e-38
0.50178587 -0.091980226 3.7026157 1.5939004e-38
0.50505072 -0.091522135 3.7049968 1.6123393e-38
0.50796652 -0.091741011 3.7061479 1.6123033e-38
0.50908041 -0.09079431 3.6942761 1.5017766e-38
0.51177281 -0.09133146 3.6950772 1.5018126e-38
0.51467896 -0.092484877 3.6934524 1.6215588e-38
0.51766527 -0.09299133 3.6943102 1.5939359e-38
0.51887584 -0.093180068 3.7029123 1.5939002e-38
0.52394599 -0.094645068 3.7091269 1.5939361e-38
0.52591246 -0.093835995 3.7044566 1.6123395e-38
0.52952319 -0.093237214 3.706399 1.6399982e-38
0.53274107 -0.092835002 3.7075267 1.6584373e-38
0.53556621 -0.093706265 3.7003224 1.4832662e-38
