# .PCD v0.7 - Point Cloud Data file format
VERSION 0.7
FIELDS x y z rgb
SIZE 4 4 4 4
TYPE F F F F
COUNT 1 1 1 1
WIDTH 1027
HEIGHT 1
VIEWPOINT 0 0 0 1 0 0 0
POINTS 1027
DATA ascii
0.41415915 -0.67497063 3.7539332 2.2214388e-38
0.4206323 -0.67521513 3.7702022 2.1937441e-38
0.42985073 -0.67220026 3.8056018 2.1937804e-38
0.43802798 -0.6715064 3.7798271 2.1198416e-38
0.37113836 -0.67459786 3.7282395 2.175163e-38
0.37459067 -0.67473942 3.7298882 2.1935663e-38
0.40766004 -0.67596489 3.7621181 2.249026e-38
0.43021244 -0.670385 3.8082652 2.2122192e-38
0.43324527 -0.66957617 3.8084431 2.1937441e-38
0.41117322 -0.67392033 3.7915576 2.1569024e-38
0.43660957 -0.6653198 3.7998722 2.2029635e-38
0.44617972 -0.66656506 3.7929304 2.0920779e-38
0.38597912 -0.67392617 3.7622516 2.0645273e-38
0.40391049 -0.66792315 3.7844872 2.1937805e-38
0.42157483 -0.66961128 3.7950101 2.1660853e-38
0.4254711 -0.66775674 3.7993901 2.2490978e-38
0.42904183 -0.66813523 3.8016248 2.2398421e-38
0.42991522 -0.66598099 3.7797482 2.1291731e-38
0.43431401 -0.66608024 3.7787199 2.1106258e-38
0.43853009 -0.66535914 3.7852807 2.1198092e-38
0.44894034 -0.6644944 3.7934225 2.0921093e-38
0.36015138 -0.66852611 3.7558887 2.0275413e-38
0.39984927 -0.66937518 3.7797592 2.184561e-38
0.40219828 -0.66971707 3.7785163 2.1753413e-38
0.40781239 -0.66720301 3.7905686 2.2122918e-38
0.40996659 -0.66600847 3.7879581 2.203108e-38
0.41702166 -0.6673972 3.7880881 2.175488e-38
0.41782638 -0.66307998 3.7733505 2.1754518e-38
0.42595744 -0.66440803 3.7740266 2.2305498e-38
0.43071088 -0.66260272 3.7845464 2.2305854e-38
0.43391922 -0.6642856 3.7885876 2.1844514e-38
0.44455406 -0.66421944 3.8001258 2.1290603e-38
0.44712558 -0.66305888 3.7989392 2.1382447e-38
0.44939053 -0.66192472 3.7960758 2.0829616e-38
0.3417826 -0.66669339 3.7253871 2.2211514e-38
0.35171235 -0.66788852 3.7422199 2.2026045e-38
0.39694959 -0.66308659 3.7659967 2.2768289e-38
0.39808092 -0.66303343 3.7597136 2.2860125e-38
0.40513206 -0.66693938 3.7780893 2.1662299e-38
0.41486475 -0.66587156 3.7892439 2.2122915e-38
0.42589149 -0.65926439 3.7738328 2.1845269e-38
0.42791784 -0.66107398 3.7753739 2.2305856e-38
0.43354863 -0.66110253 3.7873058 2.1660512e-38
0.43490118 -0.6618551 3.7816939 2.1383205e-38
0.44677594 -0.66026884 3.797596 2.1567549e-38
0.44918576 -0.65894985 3.7965503 2.1106563e-38
0.34527966 -0.66598803 3.7358811 2.2120039e-38
0.3478319 -0.66599643 3.7360029 2.2395545e-38
0.36353868 -0.66539186 3.7631683 2.1475388e-38
0.36601174 -0.66567224 3.7621429 2.1475388e-38
0.37621433 -0.66213703 3.7614758 2.1660858e-38
0.41617385 -0.66152155 3.7813137 2.2308051e-38
0.42842296 -0.66144478 3.7926638 2.1937105e-38
0.45288059 -0.65525293 3.7947495 2.0645941e-38
0.33319584 -0.66479188 3.7390642 2.1566514e-38
0.3343794 -0.66470736 3.733717 2.2210435e-38
0.3485952 -0.66402006 3.7573595 2.0183572e-38
0.353874 -0.66360855 3.7581341 2.0738182e-38
0.35598022 -0.66372973 3.7533824 2.2581015e-38
0.36081091 -0.6634022 3.7615819 2.1291357e-38
0.36154357 -0.66183364 3.7494872 2.2490616e-38
0.36831069 -0.66447902 3.7604523 2.1843446e-38
0.37018496 -0.66365707 3.7589419 2.1383551e-38
0.3721604 -0.66217065 3.7528129 2.2675012e-38
0.3749567 -0.66371679 3.7509177 2.2583176e-38
0.37441397 -0.66239053 3.738126 2.2768286e-38
0.37591556 -0.6613692 3.7328434 2.2584974e-38
0.37894917 -0.66119641 3.7338254 2.2768648e-38
0.40362701 -0.65962356 3.766381 2.2583557e-38
0.40835631 -0.65898579 3.774462 2.258425e-38
0.42378086 -0.66118068 3.7933915 2.1661932e-38
0.35156152 -0.6612249 3.7602844 2.2398437e-38
0.35453507 -0.66076785 3.7560427 2.2674293e-38
0.35767743 -0.66276169 3.7610261 2.2672854e-38
0.36189049 -0.66240686 3.7702522 2.1569384e-38
0.36138487 -0.66103822 3.7539461 2.2582813e-38
0.36393729 -0.66043502 3.7540252 2.2490978e-38
0.3673802 -0.65921307 3.7470357 2.2952673e-38
0.37201294 -0.66102737 3.754679 2.2676805e-38
0.37417936 -0.65917706 3.7461104 2.2953035e-38
0.3725116 -0.65958756 3.7305195 2.2861559e-38
0.37555015 -0.6577571 3.7309382 2.2770086e-38
0.38004509 -0.65828353 3.7383599 2.2677527e-38
0.38586587 -0.65876806 3.7535691 2.2769007e-38
0.3894476 -0.65845782 3.7606237 2.2860841e-38
0.39404958 -0.6579017 3.7611151 2.286048e-38
0.39713088 -0.6581533 3.7626104 2.2860479e-38
0.40878001 -0.65620714 3.7766678 2.240022e-38
0.42236245 -0.65748024 3.7920074 2.2768637e-38
0.450589 -0.65089953 3.7984102 2.1290956e-38
0.35742259 -0.65991557 3.7632301 2.1292797e-38
0.35783419 -0.65688419 3.7530246 2.2859763e-38
0.36319533 -0.6594789 3.7637918 2.267537e-38
0.36229184 -0.65736973 3.7497292 2.2584611e-38
0.36701563 -0.65802854 3.75965 2.258461e-38
0.36832368 -0.65800339 3.7538815 2.2860839e-38
0.37144452 -0.6564939 3.7533362 2.2769008e-38
0.37457231 -0.65657824 3.7545056 2.2953395e-38
0.37504718 -0.6572206 3.742707 2.286192e-38
0.37721628 -0.6560871 3.7385263 2.2861922e-38
0.3813408 -0.65773523 3.7445538 2.2585691e-38
0.38611624 -0.65647292 3.7573948 2.2677528e-38
0.38836101 -0.6555236 3.7583704 2.286192e-38
0.39084056 -0.65652066 3.7610641 2.2953036e-38
0.39247432 -0.65399426 3.7553284 2.2953394e-38
0.39634165 -0.65299982 3.7552178 2.2953033e-38
0.40692103 -0.65225601 3.7990234 2.2492424e-38
0.40555549 -0.65127182 3.7804022 2.249242e-38
0.40791118 -0.65086353 3.7778313 2.221655e-38
0.45104316 -0.64877534 3.8017709 2.1291312e-38
0.35412809 -0.65820795 3.7605951 2.2121869e-38
0.35589346 -0.65639472 3.7567995 2.2767925e-38
0.35865393 -0.65558845 3.7573907 2.286048e-38
0.36145714 -0.65516537 3.7575285 2.2676449e-38
0.36517361 -0.65686536 3.7645319 2.2676086e-38
0.36578494 -0.65484536 3.7545567 2.2584974e-38
0.37028828 -0.65652347 3.7615011 2.23995e-38
0.37081662 -0.65271276 3.7492466 2.2770806e-38
0.37282273 -0.65089291 3.7427268 2.2771529e-38
0.37612996 -0.65340716 3.7454376 2.2862644e-38
0.37953207 -0.65562093 3.7499168 2.2861921e-38
0.38093957 -0.65256131 3.7474847 2.2861568e-38
0.38255209 -0.65121645 3.7441497 2.295448e-38
0.38739112 -0.65280145 3.7562327 2.2861922e-38
0.39045843 -0.65305626 3.7579489 2.3045951e-38
0.39317921 -0.65238571 3.7585642 2.2954114e-38
0.39530686 -0.65117264 3.754669 2.2861934e-38
0.40472785 -0.64854062 3.788023 2.2584974e-38
0.40648124 -0.64896792 3.7857096 2.2400586e-38
0.41048443 -0.64825875 3.790581 2.2585333e-38
0.42374286 -0.64914131 3.7900605 2.2676797e-38
0.42993492 -0.64564377 3.7929306 2.1663011e-38
0.35751024 -0.65540671 3.7581306 2.2951957e-38
0.36252639 -0.65606952 3.7668984 2.286012e-38
0.36188149 -0.65167582 3.7486339 2.2586413e-38
0.36399379 -0.65093744 3.7474668 2.2587133e-38
0.36755267 -0.65090334 3.7498834 2.2678972e-38
0.36765924 -0.64991105 3.7367723 2.2863726e-38
0.36921486 -0.64916134 3.7311921 2.2679695e-38
0.37592643 -0.65127611 3.745523 2.2863364e-38
0.37455419 -0.64843035 3.7304466 2.2771173e-38
0.38254404 -0.64833933 3.7457347 2.2862287e-38
0.38604677 -0.64885587 3.7496192 2.2862285e-38
0.38968608 -0.64939344 3.7544551 2.2954475e-38
0.39156926 -0.64809155 3.7502809 2.2954115e-38
0.39427605 -0.64696711 3.7506804 2.2770821e-38
0.40041819 -0.64929819 3.7648702 2.2861555e-38
0.40989983 -0.64543223 3.7771246 2.2678243e-38
0.43012559 -0.64469546 3.8233943 2.2032158e-38
0.43255165 -0.64402348 3.816644 2.1847763e-38
0.33966678 -0.65282398 3.75737 2.1568664e-38
0.34176427 -0.65322423 3.7546701 2.2675384e-38
0.34534484 -0.65471172 3.7575057 2.1936725e-38
0.34799427 -0.65373027 3.7580159 2.276794e-38
0.3495006 -0.65294629 3.7520375 2.3044883e-38
0.35160545 -0.6520139 3.7496748 2.2769365e-38
0.35471255 -0.65107107 3.7530556 2.2677531e-38
0.35207769 -0.64820856 3.7217193 2.295556e-38
0.35319006 -0.64792156 3.7157514 2.2863367e-38
0.35601529 -0.64764136 3.7164209 2.2863008e-38
0.35658473 -0.64727241 3.7082281 2.2955564e-38
0.36409092 -0.65049821 3.7300963 2.2863006e-38
0.36114773 -0.64686203 3.7055404 2.286373e-38
0.36748734 -0.64730877 3.7266085 2.2215861e-38
0.3701129 -0.64696378 3.7265024 2.2399895e-38
0.3750352 -0.64801675 3.7360976 2.249245e-38
0.37943533 -0.64823836 3.7425969 2.2677561e-38
0.3824698 -0.64536101 3.7412825 2.2954852e-38
0.38619584 -0.64509696 3.7449803 2.2954852e-38
0.38852465 -0.64521825 3.7482314 2.2862641e-38
0.39149079 -0.64514357 3.7501857 2.2954834e-38
0.39761037 -0.6477946 3.7670038 2.2492061e-38
0.40055653 -0.64632154 3.7672737 2.3045947e-38
0.40561301 -0.64386946 3.7794304 2.230875e-38
0.40854514 -0.64293134 3.7847188 2.3046307e-38
0.41258395 -0.64420652 3.7798536 2.2678242e-38
0.41482747 -0.64363217 3.7770011 2.2769716e-38
0.42828962 -0.64537936 3.8257728 2.2032518e-38
0.4404453 -0.64217228 3.7952209 2.2031412e-38
0.32080212 -0.65260315 3.7292001 1.9997738e-38
0.32267988 -0.65176547 3.7242413 2.0643109e-38
0.32606876 -0.65245843 3.7296333 2.0827856e-38
0.33713582 -0.65172923 3.7590547 2.1660137e-38
0.3383469 -0.6493265 3.7499237 2.2860856e-38
0.34124973 -0.65030462 3.7517982 2.1753415e-38
0.34244987 -0.64967936 3.7463951 2.249386e-38
0.34539568 -0.64941382 3.7470345 2.2861215e-38
0.34669146 -0.64798272 3.7409999 2.3045962e-38
0.35049978 -0.64759588 3.7453549 2.27701e-38
0.35356978 -0.64702761 3.7472224 2.2678264e-38
0.35247564 -0.64580584 3.7256351 2.2955203e-38
0.35332626 -0.6450336 3.7066593 2.2863727e-38
0.35652503 -0.64472413 3.7087622 2.2955564e-38
0.35913697 -0.64439952 3.7086442 2.2955924e-38
0.36503872 -0.64542663 3.7254164 2.2400255e-38
0.36965761 -0.64510804 3.7352917 2.249245e-38
0.372271 -0.64708388 3.7395055 2.249245e-38
0.37494031 -0.64685512 3.7390373 2.2585006e-38
0.37812042 -0.64666712 3.7396116 2.2585005e-38
0.38246894 -0.64248389 3.7410235 2.3047051e-38
0.38526279 -0.64282107 3.7428281 2.23095e-38
0.3882387 -0.64194429 3.7390895 2.3047035e-38
0.39273152 -0.64407104 3.7574022 2.2862999e-38
0.4006733 -0.64462 3.7840571 2.258498e-38
0.40087485 -0.64361548 3.7714403 2.2586448e-38
0.4025355 -0.64222199 3.7700562 2.304667e-38
0.40542963 -0.64201206 3.7701995 2.2862994e-38
0.41216627 -0.64135534 3.7788167 2.2678242e-38
0.41413617 -0.64019132 3.7740152 2.2678239e-38
0.41841048 -0.64099777 3.782088 2.2493487e-38
0.42088091 -0.64111823 3.7813141 2.240093e-38
0.42543459 -0.63806075 3.7898302 2.258496e-38
0.32177597 -0.65202117 3.7659533 2.1292102e-38
0.3221809 -0.64957964 3.7386885 2.119991e-38
0.32349902 -0.64978951 3.7307868 2.2584268e-38
0.32711673 -0.65112424 3.736346 2.0645263e-38
0.33014885 -0.64989471 3.7376542 2.1014407e-38
0.33450288 -0.64676857 3.7483735 2.286013e-38
0.33652544 -0.64653242 3.7452285 2.2861211e-38
0.34016499 -0.64654279 3.7479599 2.2953772e-38
0.34223869 -0.6471141 3.7460392 2.3046678e-38
0.3452138 -0.64695686 3.746949 2.2769738e-38
0.34726265 -0.645522 3.7437637 2.2862285e-38
0.34958231 -0.64525545 3.7425792 2.286301e-38
0.35223478 -0.64388931 3.7413063 2.2679343e-38
0.35510203 -0.64528447 3.7414856 2.2771181e-38
0.355349 -0.64519066 3.7314565 2.2955204e-38
0.35885066 -0.64490104 3.7300422 2.2954844e-38
0.36058718 -0.64570755 3.7296412 2.2954844e-38
0.36372855 -0.64281738 3.7306428 2.2955564e-38
0.36614016 -0.64255828 3.7298291 2.2955564e-38
0.37256452 -0.6405254 3.7321444 2.3047411e-38
0.37436581 -0.64318454 3.7348089 2.3046691e-38
0.3757762 -0.64011186 3.7234914 2.3047412e-38
0.38014263 -0.64262444 3.7345555 2.2955214e-38
0.383719 -0.64212751 3.7367353 2.3139245e-38
0.38651878 -0.63982671 3.7336459 2.3046678e-38
0.41217747 -0.63872373 3.7795048 2.2862274e-38
0.41515869 -0.63838434 3.7806902 2.2770077e-38
0.41932136 -0.64151847 3.7900071 2.267788e-38
0.42271638 -0.63848066 3.7903833 2.2493485e-38
0.42708567 -0.63736659 3.7951918 2.2677513e-38
0.42780879 -0.63374084 3.7860098 2.2492043e-38
0.29846618 -0.65138525 3.7856975 2.0828584e-38
0.31618634 -0.65104109 3.7700522 2.2213671e-38
0.32244855 -0.64919364 3.7445288 2.0922929e-38
0.32543278 -0.64922422 3.7445107 2.1107322e-38
0.32751265 -0.64803183 3.7408719 2.1291716e-38
0.32930747 -0.64363801 3.7338159 2.2860849e-38
0.33802468 -0.6443013 3.7525246 2.2953766e-38
0.33986381 -0.64324445 3.746567 2.2677897e-38
0.34079775 -0.64356291 3.7392256 2.3046321e-38
0.34362251 -0.64329958 3.7401631 2.2770462e-38
0.34879804 -0.64422578 3.751931 2.2490983e-38
0.35234421 -0.64326137 3.7566133 2.2863013e-38
0.35628197 -0.64265972 3.7514999 2.2678973e-38
0.35225558 -0.64080679 3.721427 2.2771541e-38
0.35876542 -0.64101183 3.7366152 2.2955924e-38
0.35669902 -0.63985848 3.7171965 2.3047764e-38
0.36094233 -0.64150697 3.7254362 2.2955924e-38
0.36499375 -0.64178449 3.7312737 2.2955924e-38
0.36926657 -0.6404112 3.737659 2.30474e-38
0.37362504 -0.64044881 3.7469835 2.2770121e-38
0.37605256 -0.64071488 3.7466266 2.2586088e-38
0.37887752 -0.64041263 3.7467349 2.2494251e-38
0.40012732 -0.63809389 3.7845848 2.2493506e-38
0.40172559 -0.63671392 3.7815633 2.2679004e-38
0.4039844 -0.63676953 3.7786508 2.2678642e-38
0.40677771 -0.636262 3.7800593 2.2493894e-38
0.4109076 -0.63593107 3.7745409 2.2770437e-38
0.41591251 -0.63517135 3.7841182 2.2770076e-38
0.42688164 -0.63443899 3.7948556 2.2493842e-38
0.43995169 -0.63443404 3.8090835 2.24002e-38
0.31999102 -0.64381653 3.7506337 2.138538e-38
0.32174155 -0.64188117 3.7372591 2.2770107e-38
0.32406104 -0.6414541 3.7347004 2.2769375e-38
0.32919782 -0.64105701 3.7341075 2.2861571e-38
0.33314249 -0.64093477 3.7395666 2.2770094e-38
0.33289126 -0.64049125 3.7258937 2.2863021e-38
0.33829364 -0.64056987 3.7391047 2.2770095e-38
0.33708605 -0.63961536 3.7213683 2.2863021e-38
0.33826187 -0.63868064 3.7153168 2.2863024e-38
0.34863704 -0.64213735 3.7583063 2.2676093e-38
0.35161141 -0.64181119 3.7569351 2.2584258e-38
0.35516495 -0.64276552 3.7609477 2.2584258e-38
0.35793376 -0.6431424 3.7623839 2.2676455e-38
0.3545793 -0.6398353 3.7336025 2.2771903e-38
0.3573865 -0.63977951 3.7340348 2.2772622e-38
0.35885206 -0.63915932 3.7284744 2.3047404e-38
0.36138612 -0.63890433 3.7275984 2.3047764e-38
0.36438844 -0.63911569 3.7293112 2.3048121e-38
0.37084824 -0.63807476 3.7445328 2.2771546e-38
0.37436733 -0.63743144 3.7473431 2.2955577e-38
0.37628022 -0.63703567 3.7439933 2.3047761e-38
0.37954843 -0.63699991 3.7463794 2.2863727e-38
0.38044542 -0.63759112 3.7391016 2.2863367e-38
0.38821283 -0.63850975 3.7615647 2.2863364e-38
0.39283782 -0.63922471 3.774729 2.3047393e-38
0.39677969 -0.63780117 3.7820818 2.2309835e-38
0.3989619 -0.63558799 3.7825055 2.25857e-38
0.41755605 -0.63300085 3.7811143 2.2400217e-38
0.44496644 -0.63203651 3.8074999 2.1662628e-38
0.27824637 -0.64776343 3.7672381 2.1752712e-38
0.2989319 -0.6448037 3.7802994 2.1108073e-38
0.31758925 -0.64386296 3.7666485 2.2675746e-38
0.32341605 -0.64466476 3.7663865 2.1846689e-38
0.32259154 -0.64096665 3.7504356 2.2769746e-38
0.32487017 -0.64324343 3.741837 2.2769734e-38
0.32775939 -0.64309043 3.7424512 2.2861209e-38
0.33032522 -0.64251298 3.7414725 2.286085e-38
0.33285508 -0.64057559 3.7408464 2.2770095e-38
0.33293706 -0.63787532 3.727205 2.2770098e-38
0.33523902 -0.63765186 3.7256114 2.2955937e-38
0.33486652 -0.63628083 3.7123883 2.2955938e-38
0.33746117 -0.63601714 3.7124887 2.2955938e-38
0.35170019 -0.63848364 3.7625749 2.2493143e-38
0.35727894 -0.64092171 3.7753603 2.2584621e-38
0.35656944 -0.63950151 3.7573941 2.2584261e-38
0.35505059 -0.63738918 3.7370155 2.2772622e-38
0.35863012 -0.63847661 3.7414215 2.2864097e-38
0.35581565 -0.63445699 3.7057538 2.3139965e-38
0.36575383 -0.63709998 3.7360761 2.313996e-38
0.36928552 -0.6357879 3.7394969 2.313996e-38
0.37485841 -0.63571364 3.7510071 2.3047763e-38
0.37670654 -0.63492519 3.7474613 2.3139598e-38
0.38000265 -0.63558155 3.7519643 2.2955923e-38
0.3824113 -0.63546622 3.7487702 2.2955936e-38
0.38897902 -0.63626987 3.766526 2.286228e-38
0.39543441 -0.6379779 3.7880385 2.2310198e-38
0.39576676 -0.63308918 3.7796869 2.2863034e-38
0.40015826 -0.63139802 3.7897937 2.3046322e-38
0.40324876 -0.63268739 3.7918956 2.2771527e-38
0.40676934 -0.63188404 3.7904773 2.3046674e-38
0.40771797 -0.63166887 3.7851782 2.2954475e-38
0.40863967 -0.63204896 3.7748861 2.2954112e-38
0.41099733 -0.63164663 3.7750821 2.2862633e-38
0.43067494 -0.62901819 3.8055682 2.2308374e-38
0.27504683 -0.64758939 3.7971771 1.9999899e-38
0.28130326 -0.64534444 3.77036 2.1753431e-38
0.28378132 -0.64477015 3.7682822 2.1753074e-38
0.28756395 -0.64473349 3.7734284 2.1936738e-38
0.31284791 -0.64414519 3.7849956 2.2399874e-38
0.32101211 -0.64036471 3.7698078 2.2677186e-38
0.32297322 -0.63982838 3.7663188 2.2769023e-38
0.32719383 -0.64069915 3.7765954 2.2769745e-38
0.32886302 -0.64076442 3.7705085 2.2678271e-38
0.33678585 -0.64232433 3.7917292 2.2216915e-38
0.32965592 -0.63591796 3.7375705 2.2769735e-38
0.33090538 -0.63570869 3.731823 2.2861934e-38
0.3322784 -0.63529092 3.7251832 2.2771176e-38
0.33481625 -0.63507485 3.7247019 2.2955208e-38
0.33565679 -0.63360012 3.7166777 2.2955938e-38
0.3382431 -0.63336688 3.716516 2.3048134e-38
0.34934944 -0.63793725 3.7659671 2.2492785e-38
0.34955582 -0.63543904 3.7559946 2.3047044e-38
0.35350874 -0.63594919 3.7596462 2.2584981e-38
0.35283476 -0.63288009 3.7425203 2.2956656e-38
0.35928613 -0.6357975 3.7615604 2.2864819e-38
0.35641649 -0.63226259 3.7287695 2.3140688e-38
0.35755104 -0.63215119 3.7218444 2.2955937e-38
0.36024171 -0.63160932 3.7210879 2.3048128e-38
0.36761674 -0.63574511 3.7456226 2.3139601e-38
0.3738625 -0.63164163 3.7492995 2.3047767e-38
0.37972096 -0.63231742 3.7501223 2.2955938e-38
0.38438064 -0.63183695 3.7586861 2.2863743e-38
0.38402176 -0.63056564 3.7490063 2.2864101e-38
0.39249814 -0.63227129 3.7748778 2.2863367e-38
0.39459163 -0.62964046 3.7739062 2.2863366e-38
0.3986463 -0.6303103 3.7833493 2.277117e-38
0.40310201 -0.62990862 3.7911947 2.2863004e-38
0.40496278 -0.62975824 3.7880185 2.2862644e-38
0.40984297 -0.63064229 3.7971137 2.2954837e-38
0.41010737 -0.63140184 3.7854943 2.3046309e-38
0.41281879 -0.62963295 3.7865608 2.2216554e-38
0.263852 -0.64475709 3.8168149 1.8894259e-38
0.28390211 -0.64496338 3.8027494 2.0370121e-38
0.32061034 -0.63871884 3.7823293 2.2308035e-38
0.32348254 -0.63867497 3.7830989 2.2401307e-38
0.32514614 -0.63814288 3.7803969 2.2769385e-38
0.32999203 -0.63929188 3.7917912 2.2493503e-38
0.32958499 -0.63714528 3.7726374 2.2770467e-38
0.3334133 -0.6387167 3.7792504 2.2309467e-38
0.33656096 -0.6371609 3.7794304 2.2769737e-38
0.33293924 -0.63344622 3.7502863 2.2861931e-38
0.33676678 -0.63581163 3.7345338 2.2863373e-38
0.33656639 -0.63095164 3.7215588 2.2955582e-38
0.3379105 -0.63050544 3.7152431 2.2955582e-38
0.36113188 -0.63593 3.7816501 2.2953771e-38
0.35902774 -0.63296843 3.7610569 2.3048134e-38
0.3604663 -0.63410395 3.7503805 2.3047768e-38
0.36070463 -0.62955749 3.7346663 2.2955938e-38
0.36656705 -0.6337896 3.753788 2.3048128e-38
0.3685911 -0.63391054 3.7511494 2.2864822e-38
0.37104011 -0.63107634 3.7507055 2.3139964e-38
0.37479493 -0.6296072 3.7421501 2.2493518e-38
0.38252211 -0.6269263 3.7487357 2.2863744e-38
0.39042333 -0.62702435 3.7669046 2.2770813e-38
0.39471179 -0.62814522 3.7740684 2.2401672e-38
0.39846438 -0.62758297 3.7844503 2.2863006e-38
0.40058792 -0.62503517 3.7810743 2.3047393e-38
0.40413776 -0.62584883 3.7855723 2.2954838e-38
0.40664697 -0.62692612 3.7844963 2.2954835e-38
0.41116139 -0.62653422 3.7801123 2.3045588e-38
0.43458459 -0.62434882 3.8142755 2.2308373e-38
0.27567711 -0.64147025 3.8087261 2.0738566e-38
0.28641751 -0.64059907 3.784796 2.2122205e-38
0.28863883 -0.6394704 3.7812047 2.1938174e-38
0.30891502 -0.63777834 3.7813952 2.2030718e-38
0.31668797 -0.63505167 3.7809372 2.2399897e-38
0.31965315 -0.63515556 3.7813635 2.2400591e-38
0.32282454 -0.63589978 3.7834208 2.240095e-38
0.32483068 -0.63453007 3.7801182 2.2769745e-38
0.32809457 -0.63446707 3.7822659 2.2770825e-38
0.33057967 -0.6353516 3.7780166 2.2770825e-38
0.33448562 -0.63625693 3.7844241 2.2493506e-38
0.33320931 -0.63205218 3.7649488 2.2955222e-38
0.3332355 -0.63092995 3.7516134 2.286301e-38
0.33473888 -0.62818432 3.7152684 2.2955584e-38
0.3363837 -0.62789255 3.7107959 2.3047779e-38
0.35387674 -0.63228059 3.7748199 2.27701e-38
0.35383332 -0.62987846 3.7624755 2.3139612e-38
0.35548905 -0.63137907 3.7580006 2.2953768e-38
0.36611801 -0.63321388 3.7544055 2.304813e-38
0.36759838 -0.63134664 3.7486804 2.304813e-38
0.37694257 -0.62564349 3.7407928 2.2402758e-38
0.37852296 -0.62388295 3.7336211 2.3047781e-38
0.38561153 -0.62474465 3.7585754 2.2771893e-38
0.39102918 -0.62518096 3.7700276 2.2770811e-38
0.39419729 -0.623083 3.7733283 2.2494227e-38
0.39838022 -0.62424994 3.7837811 2.2771169e-38
0.40029508 -0.62248379 3.7812259 2.2955556e-38
0.40428042 -0.6233654 3.7869446 2.3138867e-38
0.40639609 -0.62298077 3.7826769 2.2771534e-38
0.40854913 -0.62391239 3.7799869 2.267753e-38
0.41313598 -0.62386733 3.7857976 2.2124356e-38
0.41014969 -0.62274152 3.7633286 2.2769735e-38
0.27614844 -0.63668621 3.8118346 2.0738891e-38
0.28004166 -0.63803315 3.8029189 2.2028922e-38
0.28292581 -0.6377722 3.8014822 2.2120759e-38
0.29679975 -0.63551146 3.7912846 2.1938528e-38
0.30306903 -0.63522208 3.7805996 2.2676088e-38
0.31670445 -0.63205647 3.7813616 2.2861202e-38
0.32044303 -0.63294536 3.7845476 2.2585698e-38
0.32290664 -0.63323808 3.7831292 2.2861205e-38
0.32582003 -0.63278461 3.7809348 2.2953761e-38
0.33150998 -0.63601595 3.8004315 2.2861204e-38
0.33267003 -0.63297677 3.7915056 2.2493152e-38
0.3343983 -0.63138717 3.7864194 2.2771188e-38
0.33673447 -0.63171023 3.7846727 2.2955222e-38
0.33487386 -0.62875712 3.7610271 2.3047419e-38
0.33606753 -0.62824172 3.7466002 2.2955584e-38
0.34016064 -0.62816834 3.7461164 2.2955225e-38
0.34040254 -0.62731463 3.7340691 2.3047778e-38
0.34976974 -0.62697208 3.7584612 2.2864467e-38
0.35656843 -0.62795371 3.7777781 2.2678268e-38
0.35560143 -0.62808007 3.7602465 2.2954128e-38
0.36110073 -0.62865669 3.7731714 2.2770101e-38
0.36489615 -0.62674004 3.7771409 2.2586793e-38
0.36635384 -0.62474024 3.7716331 2.2678987e-38
0.36827046 -0.62435281 3.7679696 2.2678987e-38
0.3763825 -0.62548172 3.752481 2.2586434e-38
0.38640732 -0.62135011 3.766834 2.2402397e-38
0.39005449 -0.61896628 3.7719789 2.249423e-38
0.39459807 -0.61904973 3.7838728 2.249279e-38
0.40156311 -0.62058902 3.8020165 2.2308756e-38
0.40264928 -0.62075251 3.7935271 2.2863719e-38
0.40595725 -0.62169796 3.7971001 2.3047751e-38
0.40284345 -0.61965895 3.7656479 2.2678962e-38
0.40771529 -0.62336326 3.7757087 2.267753e-38
0.41015598 -0.62022322 3.7752204 2.2586046e-38
0.40978375 -0.61984539 3.7619567 2.2953765e-38
0.43767971 -0.62046051 3.8173079 2.2307646e-38
0.27009356 -0.6366775 3.8247218 1.9539627e-38
0.28018498 -0.63382208 3.804292 2.1937445e-38
0.29267845 -0.6360153 3.7988765 2.2397704e-38
0.31669056 -0.62871099 3.7821307 2.2769728e-38
0.32988727 -0.63025701 3.7914696 2.2770453e-38
0.33280903 -0.6290586 3.7926176 2.2955221e-38
0.33365795 -0.62765086 3.7842243 2.2955219e-38
0.33689293 -0.62966621 3.7894471 2.2492799e-38
0.3343572 -0.62596852 3.7630892 2.3047062e-38
0.3363322 -0.62621522 3.7559352 2.2955226e-38
0.33567673 -0.62558442 3.7424631 2.2863015e-38
0.33615816 -0.62533218 3.7330027 2.277118e-38
0.33959913 -0.6248256 3.7371471 2.3047781e-38
0.35160401 -0.62562317 3.7692273 2.3047398e-38
0.35418591 -0.62414813 3.7688341 2.2955587e-38
0.35668814 -0.62580621 3.7709765 2.3138876e-38
0.36166382 -0.6261729 3.780602 2.2585714e-38
0.36592653 -0.62572014 3.7820401 2.2678631e-38
0.36680287 -0.62313813 3.7738383 2.2678988e-38
0.38597134 -0.62146509 3.7686069 2.2402756e-38
0.39097384 -0.61853093 3.7780492 2.2585345e-38
0.39587364 -0.61786622 3.7879009 2.2400594e-38
0.40155891 -0.61793643 3.8025961 2.2493144e-38
0.40261614 -0.61745757 3.7968566 2.240095e-38
0.40379551 -0.61673284 3.7871716 2.295519e-38
0.40557489 -0.61888307 3.783289 2.2125082e-38
0.40960592 -0.61698097 3.789434 2.2587125e-38
0.27336892 -0.63402367 3.8296576 1.9724775e-38
0.27952459 -0.62986344 3.8040433 2.1661573e-38
0.28957754 -0.63150722 3.8020189 2.2122552e-38
0.30943954 -0.62532705 3.787143 2.2584973e-38
0.33017161 -0.62396002 3.7831893 2.2494592e-38
0.33315378 -0.62490094 3.7834322 2.2955219e-38
0.33676589 -0.62522846 3.7875538 2.2584994e-38
0.33779618 -0.62274355 3.7580538 2.3047784e-38
0.33798277 -0.62275076 3.7422464 2.3139978e-38
0.36007226 -0.62631983 3.7999463 2.286301e-38
0.36173159 -0.62199181 3.7923067 2.2863035e-38
0.36802462 -0.62293953 3.7848077 2.2586794e-38
0.38662854 -0.61878097 3.7836614 2.2493154e-38
0.38803163 -0.61626595 3.7794564 2.2585705e-38
0.39450416 -0.61505854 3.7960773 2.2585701e-38
0.40055221 -0.61633211 3.810986 2.2679001e-38
0.40198481 -0.61631316 3.8062806 2.2586805e-38
0.40378991 -0.61559916 3.7999115 2.2401667e-38
0.40591702 -0.61590266 3.7967985 2.2400946e-38
0.40888304 -0.61564642 3.8006337 2.2954828e-38
0.28832874 -0.62868351 3.8285809 2.1845966e-38
0.29274505 -0.6266064 3.8158119 2.2030716e-38
0.29376188 -0.62545991 3.8063989 2.129354e-38
0.32007661 -0.62395585 3.7902398 2.2861925e-38
0.32018274 -0.62217212 3.7800741 2.3045958e-38
0.32942629 -0.62118179 3.7849035 2.2863008e-38
0.33006531 -0.61996615 3.774569 2.2863014e-38
0.33297238 -0.61949182 3.7756391 2.2862647e-38
0.33829394 -0.62202728 3.7840776 2.3138902e-38
0.36856565 -0.61985767 3.7874062 2.2678268e-38
0.39428097 -0.61885327 3.8545575 2.3139974e-38
0.39585248 -0.61226511 3.8054993 2.2587138e-38
0.40088573 -0.61381185 3.8142617 2.2678281e-38
0.40245873 -0.6132865 3.8093188 2.2862283e-38
0.40411335 -0.61180347 3.8032701 2.2586052e-38
0.40550715 -0.61252397 3.7970061 2.2309107e-38
0.40742067 -0.6130783 3.7956231 2.2678962e-38
0.4229489 -0.61279655 3.8149428 2.2217977e-38
0.28263941 -0.62686831 3.8268557 2.1475743e-38
0.28351161 -0.62374026 3.8161573 2.1015482e-38
0.30437467 -0.62058717 3.7958934 2.2399144e-38
0.30891183 -0.62016726 3.7719245 2.2031086e-38
0.31279537 -0.62052572 3.7774787 2.2676814e-38
0.3272464 -0.61859602 3.777992 2.2862651e-38
0.3534061 -0.61672902 3.7806771 2.2402046e-38
0.37020463 -0.61726218 3.782908 2.2586431e-38
0.36927226 -0.6131413 3.7491355 2.2955231e-38
0.37482756 -0.61732084 3.7665057 2.2494593e-38
0.40171418 -0.61442369 3.8512247 2.2771547e-38
0.40260869 -0.61410522 3.8422647 2.2863383e-38
0.39899832 -0.61010808 3.806742 2.2862311e-38
0.39721394 -0.60858047 3.7859204 2.2401306e-38
0.40188548 -0.60953104 3.7966142 2.2309823e-38
0.4051162 -0.60986513 3.7985663 2.2309465e-38
0.40891895 -0.61047387 3.8023484 2.2770437e-38
0.41397184 -0.60882652 3.8135276 2.2309126e-38
0.27378792 -0.62866163 3.8416719 1.8615882e-38
0.28927773 -0.62457526 3.8350213 2.1385345e-38
0.29981002 -0.62094945 3.8138523 2.2306947e-38
0.30533022 -0.61983109 3.8030307 2.2307307e-38
0.31133676 -0.61864781 3.7847629 2.2860843e-38
0.31343585 -0.61804903 3.7807436 2.2676815e-38
0.31809565 -0.61813056 3.7818041 2.2861208e-38
0.32110539 -0.61660898 3.7838056 2.2954125e-38
0.32232726 -0.61750704 3.7817593 2.2953765e-38
0.32437462 -0.61570352 3.7777748 2.2861572e-38
0.33631817 -0.61668348 3.7915614 2.2863017e-38
0.34151962 -0.61617053 3.7910867 2.2863381e-38
0.37018955 -0.61414844 3.785881 2.249352e-38
0.37213248 -0.61520052 3.7816486 2.2586074e-38
0.37402117 -0.61279726 3.76 2.2401679e-38
0.39867702 -0.61190492 3.8502126 2.2955581e-38
0.39521134 -0.60754985 3.8195467 2.24935e-38
0.39941213 -0.60657394 3.8160391 2.2032875e-38
0.40181983 -0.60729486 3.8105376 2.2770088e-38
0.40431789 -0.60665917 3.809196 2.2768673e-38
0.40926939 -0.60649657 3.8179774 2.2400248e-38
0.40998673 -0.60749662 3.8107347 2.2492802e-38
0.41609311 -0.60871029 3.8247199 2.2494226e-38
0.42238036 -0.60793394 3.8162429 2.2400926e-38
0.42423171 -0.60778844 3.8144782 2.2215457e-38
0.42733881 -0.60718781 3.8168855 2.1845953e-38
0.42934418 -0.60696679 3.8151126 2.1199859e-38
0.27394053 -0.62593091 3.8431644 1.7877595e-38
0.27597737 -0.62543565 3.8381004 1.9259795e-38
0.30571672 -0.61816144 3.8165224 2.2675009e-38
0.30596882 -0.61705464 3.8061037 2.2215468e-38
0.30813944 -0.61680263 3.802278 2.2492057e-38
0.32710153 -0.61219162 3.791482 2.2493892e-38
0.329328 -0.61117071 3.7878199 2.2493894e-38
0.33160958 -0.61545336 3.7895558 2.2678621e-38
0.33350533 -0.61217487 3.7837796 2.2770823e-38
0.33759004 -0.61457837 3.7904758 2.2770824e-38
0.34637088 -0.61283797 3.786294 2.2401679e-38
0.3611818 -0.61081785 3.780313 2.2678987e-38
0.36510208 -0.60956824 3.7855103 2.2862659e-38
0.36568365 -0.60992074 3.7781112 2.2493877e-38
0.36530995 -0.60851878 3.759887 2.2677909e-38
0.39292523 -0.60932273 3.8282578 2.2955224e-38
0.393639 -0.60708553 3.8185174 2.2216908e-38
0.39795423 -0.60693753 3.8254719 2.2308024e-38
0.40158963 -0.60642177 3.8292954 2.2123271e-38
0.40167713 -0.60503489 3.8128569 2.2861922e-38
0.40477076 -0.60561085 3.8132906 2.2769727e-38
0.4297058 -0.60458165 3.8184571 2.092219e-38
0.2946879 -0.6164223 3.8186035 2.202963e-38
0.29767478 -0.6148966 3.8187568 2.092476e-38
0.30533507 -0.61603808 3.8163147 2.2399138e-38
0.31173545 -0.61464405 3.7930622 2.1755964e-38
0.32723182 -0.60970408 3.7936316 2.2954124e-38
0.36088786 -0.60807574 3.7805674 2.2770461e-38
0.36403546 -0.6071623 3.7816546 2.2862659e-38
0.36715963 -0.60706478 3.7869763 2.2218005e-38
0.36676052 -0.60288513 3.7724926 2.2309839e-38
0.3702288 -0.60144985 3.7776082 2.267862e-38
0.38483804 -0.60844594 3.8306913 2.2863377e-38
0.37915087 -0.60150653 3.7936387 2.3046681e-38
0.3895058 -0.60326964 3.8235297 2.1940322e-38
0.39464587 -0.60574269 3.8366292 2.2771551e-38
0.39325029 -0.60163969 3.8141787 2.2678254e-38
0.39566022 -0.60173023 3.8096383 2.2953401e-38
0.40039578 -0.60153425 3.8095055 2.2953039e-38
0.42371735 -0.60172528 3.8181679 2.1108377e-38
0.29430515 -0.61466509 3.8188722 2.0555936e-38
0.3040055 -0.61184031 3.7989235 2.1663008e-38
0.30730751 -0.60909975 3.7869654 2.1755601e-38
0.3237482 -0.61265177 3.8077497 2.2400619e-38
0.33129933 -0.60942441 3.8154125 2.2861928e-38
0.33581731 -0.60942513 3.811785 2.2862651e-38
0.36047649 -0.60644925 3.7813089 2.2770101e-38
0.3616395 -0.60600573 3.7758598 2.2310206e-38
0.3686505 -0.60215509 3.7999568 2.2403139e-38
0.37019861 -0.60203183 3.7950892 2.313926e-38
0.37376678 -0.60207558 3.7962251 2.2494253e-38
0.38101259 -0.60242754 3.8182294 2.2955581e-38
0.38194153 -0.60148275 3.8089077 2.3138521e-38
0.38468781 -0.60075933 3.8086967 2.3046322e-38
0.38414851 -0.60095125 3.7940798 2.2125438e-38
0.38678125 -0.60142481 3.7917128 2.2217631e-38
0.38712364 -0.59945333 3.7797093 2.2401663e-38
0.40082896 -0.60001349 3.8142619 2.2860845e-38
0.41872025 -0.59907836 3.8202341 2.1384968e-38
0.42057693 -0.59989965 3.8187356 2.1385325e-38
0.42669687 -0.59893036 3.8190656 1.9815469e-38
0.29467472 -0.61310774 3.8254542 2.1660479e-38
0.30050692 -0.61212778 3.8269534 2.1937427e-38
0.30357155 -0.61055672 3.8109813 2.1202024e-38
0.30603269 -0.60981852 3.8085921 2.1570807e-38
0.30797732 -0.6069929 3.7757819 2.1848156e-38
0.31290507 -0.60567325 3.7745421 2.2308041e-38
0.34397116 -0.60542673 3.8243561 2.2770458e-38
0.33653826 -0.60284913 3.7571735 2.2493892e-38
0.36063376 -0.6021955 3.8138187 2.2494611e-38
0.36919588 -0.60171038 3.8056457 2.2403139e-38
0.3717562 -0.60098118 3.8015316 2.2310943e-38
0.37319949 -0.5990482 3.7973166 2.3046325e-38
0.3815361 -0.6005224 3.8246162 2.2954491e-38
0.38712233 -0.59799325 3.7842381 2.249386e-38
0.29065692 -0.6117003 3.8306298 2.0184264e-38
0.30929002 -0.60466903 3.8024783 2.184668e-38
0.32960144 -0.60313016 3.8102922 2.2125106e-38
0.35104015 -0.60209072 3.8424726 2.277082e-38
0.3581807 -0.60415822 3.8607485 2.2770825e-38
0.36161685 -0.60363019 3.8615787 2.2863021e-38
0.35482621 -0.59645253 3.8178794 2.267826e-38
0.36726898 -0.59877634 3.8108425 2.2770817e-38
0.37081665 -0.59738177 3.8004835 2.267753e-38
0.37601328 -0.59472913 3.7957897 2.2584982e-38
0.40455922 -0.59634715 3.820528 2.2583532e-38
0.30501544 -0.6060977 3.8263214 2.1293488e-38
0.31699049 -0.60313505 3.818054 2.1017274e-38
0.34681407 -0.60014921 3.8426523 2.2678617e-38
0.35734564 -0.59588921 3.8328631 2.2678261e-38
0.36009794 -0.5956102 3.8318241 2.2861932e-38
0.36576971 -0.59732372 3.8425567 2.2770818e-38
0.36103475 -0.59544337 3.807533 2.23091e-38
0.36498937 -0.59709305 3.8139832 2.2493534e-38
0.38070807 -0.5941574 3.8061211 2.2492809e-38
0.38482052 -0.59412205 3.8151438 2.2677179e-38
0.38701606 -0.59430736 3.8142078 2.2676821e-38
0.38955343 -0.59427863 3.8126118 2.2584624e-38
0.39232856 -0.59445405 3.8135254 2.2492065e-38
0.39500809 -0.59441274 3.8130269 2.2306949e-38
0.31934011 -0.60006893 3.817215 2.083252e-38
0.34223157 -0.59426516 3.8275471 2.2216552e-38
0.34520665 -0.59432542 3.8280478 2.2400583e-38
0.34780028 -0.59269392 3.8276942 2.2309103e-38
0.35878342 -0.59682947 3.8369374 2.2586426e-38
0.36871505 -0.59412789 3.8157554 2.2770093e-38
0.37393102 -0.59242535 3.8169887 2.258534e-38
0.38188407 -0.59223151 3.8058186 2.2307698e-38
0.34895211 -0.59273088 3.8183982 2.1478975e-38
0.35107011 -0.59208643 3.8155639 2.184704e-38
0.35836717 -0.590478 3.8084991 2.2123264e-38
0.34051692 -0.5911606 3.8188083 2.1109468e-38
0.34751767 -0.59135818 3.8251119 2.1478292e-38
0.36412886 -0.58995694 3.8268335 2.1754877e-38
0.37321749 -0.58924484 3.8175752 2.1019435e-38
0.39834353 -0.58727384 3.821255 2.0831072e-38
0.40113908 -0.58573598 3.8217933 1.9816555e-38
0.32014963 -0.59394479 3.8239267 2.1015104e-38
0.33300811 -0.59192568 3.8215477 2.1477894e-38
0.33553126 -0.59154934 3.8197336 2.175448e-38
0.33711106 -0.5908643 3.8139048 2.1661925e-38
0.33865613 -0.59116977 3.8098326 2.1477895e-38
0.35767511 -0.58934808 3.825222 2.1109834e-38
0.36036998 -0.5882656 3.8230994 2.1570487e-38
0.37722167 -0.58691347 3.8232076 2.1848484e-38
0.32979882 -0.58964324 3.8222582 2.0923631e-38
0.32402572 -0.58811194 3.8230343 2.0000583e-38
0.36936659 -0.57899272 3.8224783 2.0277176e-38
0.32158235 -0.58382714 3.8290644 1.7877963e-38
0.37739959 -0.5737375 3.821872 1.1795234e-38
0.32094938 -0.57446623 3.8265462 1.7232217e-38
0.32445535 -0.56962484 3.8192339 1.7692831e-38
0.32655728 -0.56939894 3.8174925 1.769319e-38
0.33713835 -0.5669753 3.8159425 1.7691757e-38
0.4065178 -0.68587238 3.7370822 2.1657972e-38
0.41835412 -0.68444616 3.7360759 2.0643465e-38
0.43606085 -0.6799823 3.735698 2.0179944e-38
0.42488652 -0.67954719 3.766953 1.8893536e-38
0.43180785 -0.68103087 3.777246 1.8431479e-38
0.4403761 -0.6797781 3.7724204 2.0549452e-38
0.40798998 -0.68064141 3.7569411 2.0736011e-38
0.4101769 -0.67850399 3.7494361 1.9630033e-38
0.43171769 -0.6779657 3.7756255 1.9169753e-38
0.43460304 -0.67802775 3.776001 1.9538176e-38
0.43795183 -0.67659622 3.7686155 2.0550891e-38
0.44117156 -0.67518365 3.7695506 2.0459407e-38
0.40972841 -0.67273569 3.7390683 2.2306937e-38
0.41440532 -0.67280537 3.7468321 2.2306216e-38
0.42618227 -0.67559505 3.7721493 2.0183555e-38
0.42812771 -0.67302901 3.7697492 2.1752681e-38
0.43121946 -0.67473549 3.7762244 1.9906609e-38
0.43384969 -0.67330962 3.7668433 2.1013656e-38
0.44019946 -0.67604846 3.7781935 1.861443e-38
0.44510296 -0.67395627 3.7767909 1.8152013e-38
0.40700665 -0.67065895 3.7521415 2.2675013e-38
0.41114375 -0.67041981 3.7538209 2.1107694e-38
0.42034665 -0.67039281 3.7614956 2.2030354e-38
0.42390224 -0.67024535 3.7643635 2.1938157e-38
0.42722598 -0.67081338 3.7682815 2.2029627e-38
0.4344157 -0.67324066 3.7789555 1.9813692e-38
0.43773806 -0.67308909 3.7790761 1.962894e-38
0.44055316 -0.6720084 3.7715387 1.861407e-38
0.37814131 -0.66999984 3.7709491 2.1935639e-38
0.39400956 -0.6690076 3.7520788 2.2398421e-38
0.39784196 -0.66913968 3.7567873 2.1291735e-38
0.39968169 -0.67040217 3.7529671 2.1383929e-38
0.40209115 -0.66899544 3.7510581 2.1476482e-38
0.41698599 -0.66698718 3.7471449 2.2030699e-38
0.42437345 -0.66748023 3.7654579 2.2122188e-38
0.38935387 -0.66681957 3.7456863 2.1661246e-38
0.39305231 -0.66573817 3.7377696 2.2860125e-38
0.39844111 -0.66786265 3.7500539 2.1660487e-38
0.40065765 -0.6657508 3.7471912 2.276792e-38
0.41177332 -0.66428804 3.7456439 2.2307664e-38
0.41441673 -0.66429412 3.7459774 2.2123271e-38
0.42886537 -0.66442597 3.7719162 2.1383569e-38
0.43987486 -0.66719419 3.7788138 1.9537817e-38
0.4457947 -0.66621423 3.7922916 2.0920422e-38
0.45638409 -0.66540891 3.7903957 1.9537476e-38
0.46342024 -0.66699481 3.7987399 1.8889942e-38
0.34956616 -0.66249305 3.7447355 2.0552354e-38
0.35266438 -0.6634118 3.7463691 2.0459803e-38
0.35893911 -0.66391104 3.7501106 2.1107715e-38
0.36342078 -0.66543669 3.7586243 2.1382834e-38
0.36324415 -0.66256732 3.7230749 2.2491356e-38
0.39153919 -0.66032559 3.7338064 2.2860845e-38
0.39446121 -0.66031241 3.7346091 2.2953038e-38
0.41274062 -0.66217679 3.7495849 2.2492057e-38
0.41787654 -0.66136777 3.7367692 2.1476848e-38
0.43514273 -0.66513747 3.7904251 2.0093531e-38
0.4468821 -0.66446775 3.7964633 1.9446711e-38
0.45321053 -0.66553563 3.8029954 1.8615866e-38
0.45499319 -0.66432816 3.7988873 1.8338914e-38
0.30884975 -0.66040969 3.7196529 2.147432e-38
0.31447244 -0.66040981 3.7237723 2.1658713e-38
0.35069504 -0.6606887 3.7473359 2.2489901e-38
0.3611019 -0.66139537 3.7541173 2.276613e-38
0.36882141 -0.66071701 3.7342281 2.1384655e-38
0.36996248 -0.66063285 3.7228348 2.147685e-38
0.38136244 -0.6645726 3.7437885 2.1384653e-38
0.38579929 -0.66300869 3.7518501 2.1937434e-38
0.38807696 -0.66034895 3.7483647 2.2860848e-38
0.38931569 -0.66176665 3.7425227 2.1477206e-38
0.39048144 -0.6583938 3.7355287 2.1661598e-38
0.39417988 -0.6578874 3.7372072 2.2769012e-38
0.41955149 -0.65788847 3.7437332 2.2121499e-38
0.43497092 -0.66275227 3.7825766 2.0460858e-38
0.45186353 -0.66194648 3.7984819 1.9355223e-38
0.45850354 -0.66247535 3.8025444 1.9076117e-38
0.30208468 -0.65780354 3.7317815 2.1382485e-38
0.3444019 -0.65929288 3.743398 2.0184648e-38
0.35715061 -0.66108477 3.7546222 2.1291717e-38
0.36814266 -0.65798169 3.7286553 2.1384655e-38
0.36739829 -0.65593207 3.7105742 2.1754873e-38
0.37173918 -0.65584826 3.7073834 2.1661958e-38
0.37292981 -0.65470254 3.7034411 2.1570123e-38
0.37508422 -0.65433902 3.7022593 2.1661957e-38
0.38469133 -0.6584509 3.7345355 2.1661958e-38
0.3955974 -0.65865082 3.7509537 2.2123299e-38
0.39515993 -0.65680522 3.7389264 2.1938544e-38
0.3981024 -0.65646631 3.7386448 2.1570121e-38
0.44826058 -0.65955043 3.8035345 1.9815502e-38
0.44997311 -0.65897095 3.8002214 1.9354157e-38
0.31959718 -0.65206593 3.6849599 2.2675387e-38
0.34881303 -0.65613049 3.7427967 2.2675024e-38
0.35975954 -0.65373105 3.7040851 2.3045609e-38
0.36374474 -0.65362692 3.7093942 2.1478289e-38
0.37482291 -0.65353268 3.7338147 2.184671e-38
0.3794038 -0.65317965 3.7150288 2.1570482e-38
0.39123866 -0.65537673 3.7423239 2.2491722e-38
0.44485956 -0.65723914 3.8003128 2.0185368e-38
0.45388731 -0.65370357 3.7958894 1.9446341e-38
0.34821951 -0.65542936 3.7591386 2.1753414e-38
0.35389146 -0.6524865 3.7506552 2.2952693e-38
0.35946465 -0.65100592 3.7038517 2.3045609e-38
0.3638849 -0.65175951 3.7119045 2.2953772e-38
0.36988401 -0.65132636 3.711318 2.1754873e-38
0.37386948 -0.65180159 3.72176 2.1754874e-38
0.39872423 -0.65333575 3.7563543 2.1847068e-38
0.40420312 -0.65293294 3.7603092 2.1754515e-38
0.41188085 -0.65281206 3.749162 2.212402e-38
0.31448367 -0.64988506 3.7488797 2.1199549e-38
0.34361127 -0.64951229 3.7241275 2.2861573e-38
0.37366003 -0.64740884 3.7160275 2.2031462e-38
0.39905691 -0.64958984 3.7581096 2.1755236e-38
0.40465623 -0.6500327 3.7681351 2.2216191e-38
0.45345515 -0.65147728 3.8044801 2.0645227e-38
0.31553128 -0.64890712 3.7438817 2.1569772e-38
0.34490052 -0.6530959 3.7944896 2.2306951e-38
0.40561351 -0.64966649 3.7813265 2.2308749e-38
0.40531966 -0.64686036 3.7714405 2.1939267e-38
0.41346043 -0.650433 3.7851675 2.240022e-38
0.41654593 -0.64709228 3.7571192 2.212402e-38
0.43145007 -0.64775306 3.8169861 2.2215459e-38
0.27821389 -0.6497553 3.7828121 2.1015154e-38
0.33575162 -0.64359272 3.7135668 2.2770821e-38
0.37773862 -0.64403886 3.7370703 2.2493172e-38
0.40352145 -0.6464119 3.7759671 2.2124018e-38
0.40268767 -0.64367998 3.7617936 2.2584611e-38
0.4103758 -0.64533746 3.7834625 2.2308026e-38
0.41616794 -0.64515269 3.786274 2.2031457e-38
0.41858435 -0.64545417 3.7844939 2.193924e-38
0.4189496 -0.64602667 3.7751296 2.175379e-38
0.43611807 -0.64685279 3.8279843 2.1845987e-38
0.25886428 -0.65076083 3.7959836 1.8801713e-38
0.26276293 -0.64959621 3.7878108 1.9538922e-38
0.27118719 -0.64693773 3.7778685 2.1015874e-38
0.3010951 -0.64595068 3.7804692 2.1107713e-38
0.31497109 -0.64165324 3.7420228 2.2676826e-38
0.31577966 -0.64409053 3.7373941 2.1385017e-38
0.34068918 -0.64630365 3.7732518 2.2124746e-38
0.33856454 -0.63962549 3.699662 2.2955933e-38
0.34172937 -0.63945025 3.7023332 2.2864097e-38
0.39710361 -0.64651263 3.7806449 2.240095e-38
0.39780545 -0.64413106 3.7680545 2.2400228e-38
0.40012583 -0.64481962 3.7690363 2.2584617e-38
0.40707055 -0.64207172 3.7800863 2.2308747e-38
0.40800607 -0.64381897 3.772994 2.1939627e-38
0.41785228 -0.64360952 3.7899642 2.1662676e-38
0.41654253 -0.64348465 3.7748709 2.1754153e-38
0.42332298 -0.64647019 3.7927527 2.193888e-38
0.42505786 -0.64479637 3.7889318 2.193852e-38
0.26334649 -0.64591253 3.8029904 2.0001721e-38
0.27016103 -0.64592087 3.7980189 2.0276842e-38
0.31143892 -0.64023292 3.7401111 2.2860856e-38
0.33554298 -0.63561428 3.6895711 2.3048133e-38
0.34196386 -0.6369822 3.7041578 2.2864817e-38
0.34461632 -0.63678181 3.7036932 2.2772982e-38
0.39526415 -0.63937223 3.755445 2.212402e-38
0.39997122 -0.6402877 3.766118 2.2124018e-38
0.40667686 -0.63897276 3.7755463 2.2216552e-38
0.41256222 -0.64024848 3.7813158 2.184671e-38
0.41777611 -0.64174879 3.7931778 2.1662677e-38
0.41643769 -0.63817984 3.773617 2.1938185e-38
0.42135689 -0.63870668 3.7808986 2.175415e-38
0.42372593 -0.63946551 3.7811213 2.1755568e-38
0.44480318 -0.64147425 3.8177786 2.1385003e-38
0.25745124 -0.64487225 3.8260822 1.7510634e-38
0.28235865 -0.64296246 3.7910476 2.1291361e-38
0.33393842 -0.63292116 3.6829755 2.3048134e-38
0.34164149 -0.63453114 3.7023365 2.2956297e-38
0.3969062 -0.63852519 3.7648048 2.2032903e-38
0.40144446 -0.63954753 3.7777438 2.2492785e-38
0.40494761 -0.63801003 3.783617 2.2400947e-38
0.41925916 -0.63698477 3.7879515 2.1661958e-38
0.42497262 -0.6386531 3.7974358 2.1754153e-38
0.44053832 -0.63834798 3.809967 2.1201308e-38
0.28395021 -0.64058292 3.8029537 2.0923648e-38
0.33197683 -0.6334483 3.7341251 2.2862652e-38
0.33693305 -0.6347245 3.7445409 2.2493172e-38
0.34225318 -0.63540006 3.7409642 2.2401695e-38
0.34113136 -0.63288015 3.7201602 2.2402414e-38
0.34554479 -0.63244969 3.7084405 2.3048134e-38
0.36375502 -0.63174993 3.7164571 2.3231808e-38
0.39846599 -0.63777 3.7727933 2.2493145e-38
0.40100008 -0.63641691 3.7745378 2.2493503e-38
0.40788665 -0.63559586 3.772356 2.2400242e-38
0.41341746 -0.63502675 3.7863448 2.2399882e-38
0.41700244 -0.63478965 3.7860079 2.1939264e-38
0.28155357 -0.636558 3.8049247 2.1109868e-38
0.29991531 -0.63650459 3.7996869 2.1754524e-38
0.30118465 -0.63489264 3.7942758 2.2215475e-38
0.31076616 -0.63471127 3.7612214 2.1756687e-38
0.33497545 -0.63218313 3.7472374 2.2400976e-38
0.33714044 -0.6318993 3.7454908 2.2493532e-38
0.33528754 -0.63093609 3.7288656 2.2493531e-38
0.34267095 -0.63076001 3.7261229 2.2586447e-38
0.34305319 -0.63060158 3.7164674 2.2493891e-38
0.35405865 -0.63004506 3.7264848 2.3047414e-38
0.39938724 -0.63589782 3.7783806 2.2493506e-38
0.39919445 -0.63167077 3.7660015 2.2400607e-38
0.40382662 -0.63303506 3.776473 2.2863362e-38
0.40973213 -0.63421279 3.7891371 2.2401303e-38
0.41142321 -0.63359165 3.7847881 2.2216553e-38
0.42659533 -0.63220841 3.7904737 2.2492083e-38
0.28213337 -0.63118881 3.8077126 2.1201347e-38
0.32171717 -0.63116789 3.7863748 2.23095e-38
0.32417089 -0.63156039 3.78708 2.2217661e-38
0.32543233 -0.63103443 3.7802751 2.2125467e-38
0.32920402 -0.63158202 3.7857463 2.2309498e-38
0.33458465 -0.62826967 3.7258074 2.23095e-38
0.34252441 -0.62988585 3.7401519 2.2585726e-38
0.34294885 -0.62928951 3.7306511 2.2586447e-38
0.34909832 -0.62975127 3.7432146 2.2493891e-38
0.34982711 -0.62974036 3.7354686 2.3047414e-38
0.40616506 -0.62951535 3.7754302 2.2863011e-38
0.44966519 -0.62990195 3.8149798 2.101368e-38
0.28274557 -0.62912518 3.8120532 2.1109512e-38
0.3233968 -0.62969971 3.793041 2.2677178e-38
0.32411167 -0.62830287 3.7863693 2.2309497e-38
0.34260356 -0.62716788 3.7374692 2.2585726e-38
0.3452096 -0.62738371 3.7381723 2.2401697e-38
0.34624702 -0.62733978 3.7315505 2.3047414e-38
0.39700103 -0.62528139 3.7511559 2.2863736e-38
0.40601432 -0.629269 3.7756312 2.2677534e-38
0.32572097 -0.62664008 3.7814262 2.2493529e-38
0.32865527 -0.62429082 3.7447901 2.2217304e-38
0.3329244 -0.62386543 3.7534819 2.2401337e-38
0.33547729 -0.62486744 3.7566688 2.3047063e-38
0.3342773 -0.6237219 3.7349164 2.2402413e-38
0.34363082 -0.62618107 3.753175 2.2493892e-38
0.34500948 -0.62420231 3.7491767 2.2955945e-38
0.34245121 -0.6236369 3.7254341 2.2863741e-38
0.34982297 -0.62421471 3.7457592 2.2864101e-38
0.39869383 -0.62639213 3.7779164 2.3046682e-38
0.40529355 -0.6239782 3.7820814 2.286336e-38
0.4512763 -0.6253168 3.8128624 1.861443e-38
0.2690118 -0.62836063 3.8433523 1.7046391e-38
0.28050002 -0.62571198 3.8146799 2.0371944e-38
0.28519219 -0.62574428 3.8210869 2.0741088e-38
0.28321043 -0.62120062 3.7989163 2.0738891e-38
0.32186815 -0.62346107 3.7859504 2.23095e-38
0.32792991 -0.62217623 3.768249 2.2586087e-38
0.33078662 -0.62212336 3.759496 2.2493531e-38
0.34275535 -0.62228161 3.7678342 2.2402055e-38
0.35842288 -0.62298274 3.7692618 2.2863738e-38
0.36560044 -0.62540972 3.790488 2.2494959e-38
0.38767776 -0.61746538 3.7470508 2.2402033e-38
0.29766268 -0.6245808 3.8059447 2.1938526e-38
0.31161118 -0.61989266 3.7921505 2.2032188e-38
0.31479183 -0.62016892 3.7953773 2.203255e-38
0.32827353 -0.62036836 3.7742603 2.2493891e-38
0.38961741 -0.61854923 3.7594581 2.2494227e-38
0.39312291 -0.61689031 3.7629063 2.2493867e-38
0.39383048 -0.61619723 3.7532859 2.2493504e-38
0.40425617 -0.62074685 3.7767758 2.230875e-38
0.4065727 -0.61948037 3.7764189 2.2677528e-38
0.31210527 -0.6192379 3.7943177 2.1847799e-38
0.31934062 -0.61905789 3.7891436 2.2491708e-38
0.32410744 -0.61792469 3.7845824 2.2309498e-38
0.32517165 -0.61753982 3.7767327 2.2401337e-38
0.35499907 -0.61980015 3.7900653 2.2770814e-38
0.40141678 -0.61714655 3.780822 2.3045956e-38
0.40331095 -0.61705762 3.7740741 2.2584975e-38
0.41371131 -0.6164822 3.8103974 2.2586081e-38
0.41542298 -0.61575598 3.8082969 2.1940328e-38
0.29233691 -0.61608768 3.8069453 2.1017669e-38
0.29731554 -0.61850965 3.8167744 2.1386453e-38
0.30730242 -0.61646867 3.8096941 2.2492432e-38
0.32537413 -0.61627662 3.7863615 2.2493892e-38
0.32865024 -0.61470008 3.7848008 2.2217304e-38
0.33159831 -0.61385655 3.7826345 2.23095e-38
0.3342976 -0.6150822 3.7830386 2.2585726e-38
0.33893231 -0.6162411 3.7908642 2.2586088e-38
0.3404415 -0.61757332 3.7865541 2.2401337e-38
0.35678989 -0.61467034 3.7710423 2.2678631e-38
0.40152758 -0.61894196 3.8636105 2.2955581e-38
0.41804081 -0.6170364 3.8422081 2.1755956e-38
0.29428646 -0.61520445 3.815064 2.0741082e-38
0.29739571 -0.61389577 3.8094938 2.1017276e-38
0.32763469 -0.61320382 3.7876549 2.2770469e-38
0.34593034 -0.61345398 3.7865829 2.23095e-38
0.39214891 -0.61739659 3.8734901 2.2493891e-38
0.40696466 -0.61902821 3.8985715 2.2309497e-38
0.40367261 -0.6100111 3.8032732 2.2493857e-38
0.40992033 -0.61299807 3.8218184 2.3046681e-38
0.41434604 -0.61210072 3.8288171 2.1940321e-38
0.42904305 -0.61276013 3.8327041 2.0370847e-38
0.43352151 -0.61277509 3.8319736 2.073854e-38
0.43329039 -0.61226839 3.8186297 1.9908777e-38
0.43728453 -0.6126436 3.8238575 1.9907335e-38
0.30670103 -0.61390704 3.822839 2.1110947e-38
0.33031094 -0.61267215 3.7956696 2.2493892e-38
0.33423385 -0.61206162 3.7988768 2.23095e-38
0.39377794 -0.61452132 3.8722706 2.2309497e-38
0.39585105 -0.61424375 3.8708534 2.2401691e-38
0.40678066 -0.61623961 3.8994713 2.240169e-38
0.40338263 -0.60834217 3.8088636 2.2031825e-38
0.40649551 -0.60789412 3.8142779 2.2032875e-38
0.41120541 -0.61020154 3.8207572 2.1754877e-38
0.41435114 -0.61111575 3.8215504 2.1662676e-38
0.30151734 -0.60902947 3.8084123 2.0832916e-38
0.32919338 -0.60918063 3.7987614 2.2309501e-38
0.38846523 -0.61157078 3.8644261 2.2401695e-38
0.39502946 -0.612436 3.8769543 2.22173e-38
0.39711356 -0.61187565 3.8754771 2.2309493e-38
0.40360039 -0.61273026 3.8886862 2.240169e-38
0.40247247 -0.61029118 3.8660743 2.2217296e-38
0.40363714 -0.60694695 3.814744 2.2033237e-38
0.4070287 -0.60581023 3.8196511 2.1940321e-38
0.409722 -0.60732359 3.8209178 2.1570123e-38
0.42594808 -0.60648316 3.8188958 1.9448163e-38
0.31472361 -0.60686338 3.806778 2.1755963e-38
0.32349437 -0.60857773 3.8124585 2.1940709e-38
0.32617587 -0.60805905 3.8142321 2.2032544e-38
