# .PCD v0.7 - Point Cloud Data file format
VERSION 0.7
FIELDS x y z rgb
SIZE 4 4 4 4
TYPE F F F F
COUNT 1 1 1 1
WIDTH 1055
HEIGHT 1
VIEWPOINT 0 0 0 1 0 0 0
POINTS 1055
DATA ascii
1.1269369 0.29919139 3.5261819 8.1077574e-39
0.6617862 0.30164638 3.6299047 1.4832594e-38
0.66936165 0.3032465 3.6448812 1.4924434e-38
0.67244005 0.30338269 3.6443961 1.5569806e-38
0.67155051 0.30490616 3.6355002 1.5016635e-38
0.67621046 0.30532685 3.6415892 1.4371985e-38
0.70993966 0.30532902 3.6553013 1.418687e-38
0.71119171 0.30313843 3.6485403 1.3634778e-38
0.7212202 0.30261496 3.6150019 1.7229328e-38
0.72428185 0.30239618 3.6059446 1.6491767e-38
0.73234552 0.30241767 3.606766 1.2620276e-38
0.8106392 0.30435035 3.6298327 4.4228357e-39
0.87672591 0.30446106 3.6038663 1.2438051e-38
0.88474679 0.30459875 3.6163175 1.2256166e-38
0.88825327 0.30367142 3.6167903 1.2717495e-38
0.88687807 0.30379918 3.6090283 1.6034359e-38
0.88792276 0.30442393 3.605582 1.6496774e-38
0.89041787 0.30424649 3.60515 1.6773359e-38
0.89310473 0.30380839 3.6050115 1.695775e-38
0.89348423 0.3036738 3.5994489 1.71425e-38
0.89461255 0.30355975 3.5956485 1.7604557e-38
0.89773673 0.30499339 3.5982528 1.8343201e-38
0.90114743 0.30445173 3.5961828 1.8803457e-38
0.90489334 0.30355442 3.5940673 1.7882959e-38
0.90142697 0.30389386 3.5785379 1.7511665e-38
0.90550536 0.30074781 3.570462 1.880489e-38
0.93241066 0.30807504 3.6563835 1.9081487e-38
0.93436217 0.30798671 3.6558044 1.8988932e-38
0.9368701 0.30777535 3.6537521 1.9449548e-38
0.93634766 0.3075327 3.6449096 1.9358069e-38
0.92961109 0.30421272 3.5776911 1.9450994e-38
0.93406844 0.30249941 3.580106 1.9727582e-38
0.93738872 0.30243692 3.5830369 1.9819778e-38
0.94695967 0.30256692 3.5971487 1.9819775e-38
0.9425478 0.30266866 3.5792999 1.9727579e-38
0.94266522 0.30281293 3.5745578 1.8527261e-38
0.94255435 0.30295739 3.5698328 2.0004169e-38
0.94365305 0.30271026 3.5665774 1.9635385e-38
0.97548121 0.30524158 3.5722692 1.9264779e-38
0.97917932 0.30553621 3.5752037 1.9449169e-38
0.98261058 0.30338138 3.5671227 1.9172584e-38
0.98536193 0.30425674 3.5682883 1.9356612e-38
0.96796483 0.29782966 3.5036275 2.037224e-38
0.9773829 0.2989051 3.5195549 1.9542478e-38
0.98268318 0.29931498 3.5249863 1.972723e-38
0.98366475 0.29863799 3.5202849 1.9542483e-38
0.98833442 0.30068764 3.5204692 1.9542479e-38
1.0207256 0.30056328 3.5329921 2.0003457e-38
1.0399644 0.30145288 3.5467219 1.9355934e-38
1.0450368 0.3015669 3.5472972 1.907935e-38
1.0443984 0.30091053 3.5401318 1.9078995e-38
1.0575849 0.29853722 3.5238392 1.8711292e-38
1.0641172 0.29951712 3.5241106 2.0371882e-38
1.0674107 0.30031511 3.5261889 2.0280044e-38
1.0663761 0.29891878 3.5154173 1.862089e-38
1.0676414 0.29819244 3.5146213 1.843686e-38
1.0705463 0.29814002 3.514503 1.8897835e-38
1.0798889 0.30056924 3.5131304 1.7698573e-38
1.080952 0.29881287 3.5081789 1.7698569e-38
1.0851212 0.2982136 3.5137038 1.7606374e-38
1.0833398 0.29972082 3.5021574 1.6683341e-38
1.0875301 0.30055606 3.5065882 1.6682622e-38
1.0926921 0.29876399 3.5075426 1.5851781e-38
1.1292965 0.30491087 3.5344076 1.0043136e-38
1.1430736 0.30302703 3.5440764 5.7121354e-39
0.65651304 0.30651087 3.6359589 1.3910644e-38
0.66274345 0.30464271 3.6342313 1.5109177e-38
0.66723442 0.30633938 3.6437666 1.4371615e-38
0.66903627 0.30669296 3.6430218 1.3910283e-38
0.67044896 0.30666381 3.6377289 1.5016634e-38
0.67054302 0.30745631 3.6326084 1.4556019e-38
0.69874132 0.30964771 3.6704812 1.1975996e-38
0.71439171 0.30567485 3.6206701 1.6399933e-38
0.71818441 0.30535144 3.6130054 1.6676158e-38
0.71821505 0.30468181 3.60572 1.6491764e-38
0.72164553 0.30432624 3.6056473 1.6307371e-38
0.85356694 0.30651048 3.6201212 7.8300957e-39
0.87437409 0.30685726 3.6089685 1.3174533e-38
0.87638932 0.30695707 3.6085138 1.3820256e-38
0.87786716 0.30698344 3.6062825 1.5111708e-38
0.88420135 0.30685177 3.6140547 1.5757429e-38
0.88690901 0.30662706 3.6126449 1.6219483e-38
0.8834126 0.306169 3.5984039 1.695775e-38
0.88592011 0.30596113 3.5977638 1.7510924e-38
0.89149964 0.30690292 3.6071503 1.7972981e-38
0.89182603 0.30610639 3.6017854 1.4839049e-38
0.89513195 0.30584338 3.5937493 1.8250647e-38
0.89686376 0.30706364 3.5922163 1.8988211e-38
0.89857316 0.30656448 3.5874565 1.8896015e-38
0.93188888 0.31027061 3.6545088 1.9541389e-38
0.93884915 0.31034163 3.6568494 1.9357715e-38
0.93190306 0.30498558 3.5758414 1.9543191e-38
0.93433082 0.30702293 3.5783892 1.9820132e-38
0.93543142 0.30502921 3.5693703 1.9635742e-38
0.93642777 0.30506924 3.5657873 1.9727937e-38
0.96996903 0.305875 3.5643051 1.9264419e-38
0.9724229 0.30665714 3.5644054 1.9264778e-38
0.96695501 0.30292746 3.5314949 1.963467e-38
0.96866757 0.30191979 3.5278387 1.9726863e-38
0.97033978 0.30374849 3.5269876 1.9358438e-38
0.96879154 0.30047929 3.5041161 1.9542476e-38
0.97290117 0.30029774 3.5068045 1.972687e-38
0.97689837 0.30095407 3.5108747 2.0095293e-38
0.98070133 0.3013382 3.5137887 1.9726511e-38
0.9836911 0.3014946 3.5131629 1.9542479e-38
0.99054396 0.30343923 3.5244422 1.9635033e-38
0.98395342 0.30080998 3.5043643 1.972651e-38
0.98530102 0.30051196 3.5009351 1.9357369e-38
1.0045954 0.30057016 3.5126855 1.8988229e-38
1.0128639 0.30210587 3.5095613 1.9819786e-38
1.0435952 0.30376473 3.5439405 1.9079351e-38
1.0407037 0.30240113 3.5288844 1.917155e-38
1.041485 0.30125201 3.5154903 1.8987158e-38
1.0537015 0.3016243 3.5241799 1.8710932e-38
1.0604934 0.3013446 3.5228212 2.04648e-38
1.0644771 0.30223674 3.5258133 2.0464437e-38
1.0664279 0.30283272 3.5243769 1.9081862e-38
1.0634528 0.30051053 3.5090587 1.8437217e-38
1.0727346 0.30182397 3.5080652 1.852798e-38
1.0765157 0.30205536 3.5098355 1.7882969e-38
1.0776711 0.30186331 3.5068691 1.7514185e-38
1.0801774 0.30103561 3.5021377 1.7144682e-38
1.0869477 0.30179635 3.5031583 1.6497513e-38
1.1316719 0.3073529 3.5371723 9.5818014e-39
1.1323122 0.30557486 3.5377431 9.4899659e-39
1.1366925 0.30483463 3.5413542 8.199967e-39
1.1405889 0.30581367 3.5392473 5.5277441e-39
1.1497465 0.30794868 3.5575318 6.1731107e-39
0.66587776 0.30899626 3.6396928 1.4186868e-38
0.66832346 0.30940279 3.6403184 1.3910646e-38
0.71667194 0.30752647 3.6014104 1.6030787e-38
0.71913683 0.30727249 3.5996816 1.575456e-38
0.72243011 0.30681062 3.5982146 1.6030786e-38
0.86011195 0.31011796 3.6121101 8.1988754e-39
0.86598659 0.31039551 3.6134269 1.1424615e-38
0.86875099 0.31031582 3.6133215 1.2530596e-38
0.8713122 0.30926102 3.6056809 1.40972e-38
0.87539971 0.30891913 3.6069615 1.4835115e-38
0.87565333 0.30874616 3.6015747 1.5481198e-38
0.8770389 0.308541 3.5993378 1.6403153e-38
0.87599975 0.30857471 3.5903506 1.5574489e-38
0.88115656 0.30846849 3.5965452 1.732725e-38
0.88413417 0.30870107 3.5980661 1.7419104e-38
0.88638902 0.30902186 3.598346 1.732691e-38
0.88884652 0.30855662 3.5981011 1.4930527e-38
0.89253539 0.30866808 3.6000664 1.5300028e-38
0.89444089 0.30889142 3.5969625 1.7882585e-38
0.89797646 0.30897513 3.5996926 1.7974423e-38
0.89755315 0.30879655 3.5884364 1.9172603e-38
0.8977161 0.308979 3.5806324 1.8251749e-38
0.9005537 0.30689424 3.5789435 1.815843e-38
0.96725368 0.30889887 3.5605948 1.9449169e-38
0.97065228 0.30838341 3.5628035 1.9264778e-38
0.95970893 0.30413896 3.5195396 1.9635031e-38
0.96468014 0.30595991 3.5241656 1.9911254e-38
0.96648133 0.30593294 3.5231788 1.9450275e-38
0.96766019 0.30541039 3.5187788 1.9727221e-38
0.96653229 0.30340686 3.5039446 1.9726865e-38
0.97120851 0.30251551 3.5021067 2.0095291e-38
0.97583073 0.30332398 3.5065017 2.0187848e-38
0.9782629 0.30441672 3.5086946 1.9911263e-38
0.98648024 0.30602106 3.5224681 1.9818706e-38
0.98479724 0.30342162 3.5060663 1.9635033e-38
0.98614365 0.30280817 3.502836 1.9911261e-38
0.99835449 0.30399409 3.5002434 2.0187487e-38
1.014918 0.30455834 3.5237894 2.0187848e-38
1.0119929 0.30377695 3.5069971 1.9171545e-38
1.0290073 0.30569252 3.5249479 1.9357702e-38
1.0323752 0.30635756 3.5296252 1.9449539e-38
1.038205 0.30347934 3.5134673 1.9079713e-38
1.0421156 0.30412754 3.5168669 1.9171192e-38
1.0469068 0.30467889 3.5201907 1.8894605e-38
1.0509429 0.30447274 3.5226307 1.8618019e-38
1.0499388 0.30385354 3.5142596 2.0556642e-38
1.0574619 0.30477163 3.5254688 1.8434348e-38
1.0644248 0.30583674 3.5328622 2.0741032e-38
1.0684757 0.30708051 3.5328629 2.028077e-38
1.0689654 0.30643278 3.5284326 1.8805636e-38
1.0664054 0.30431598 3.5162919 1.8897112e-38
1.1159891 0.30297813 3.5086441 9.3048572e-39
1.1161546 0.30368292 3.5045235 7.6471464e-39
1.1393563 0.30831602 3.5513833 9.6743558e-39
1.1405531 0.3085016 3.5506215 9.3059362e-39
1.1427257 0.30847403 3.5501153 7.8311803e-39
1.1474912 0.31048933 3.5565727 6.8173927e-39
1.1452168 0.30979311 3.546876 5.3437144e-39
0.66483331 0.31198564 3.6367757 1.4279066e-38
0.71572685 0.31080922 3.6239836 1.2713551e-38
0.71611917 0.31038204 3.6072633 1.2620999e-38
0.71756351 0.31027204 3.6030514 1.234477e-38
0.72206968 0.3094579 3.5969329 1.6399207e-38
0.8376469 0.31180409 3.6230197 4.9749346e-39
0.84227568 0.31255102 3.628216 4.6061507e-39
0.85508215 0.31146908 3.6216445 5.6199397e-39
0.86368841 0.31258586 3.6204653 9.5818084e-39
0.86795646 0.31255373 3.6187446 1.0318645e-38
0.86841261 0.31267676 3.6133311 1.3914605e-38
0.87127489 0.3115876 3.60552 1.5481202e-38
0.87403154 0.31169689 3.6053452 1.6959196e-38
0.87506843 0.31119555 3.5999768 1.7051749e-38
0.87655431 0.31095126 3.5980754 1.7052104e-38
0.87544566 0.31105027 3.5886838 1.7881865e-38
0.87872177 0.31110477 3.5911009 1.806554e-38
0.88030726 0.31078172 3.5897598 1.824993e-38
0.884942 0.31177521 3.5956419 1.8158816e-38
0.88861465 0.31166551 3.5951719 1.8066273e-38
0.89286619 0.31152824 3.6006362 1.806627e-38
0.88857335 0.30851737 3.5726836 1.9172965e-38
0.89284223 0.30753449 3.5765712 1.8988569e-38
0.89797187 0.31018841 3.580055 1.8435775e-38
0.90084291 0.30988485 3.5793266 1.834246e-38
0.89861244 0.30763388 3.5635576 1.8620524e-38
0.958049 0.31021503 3.5502973 1.9450607e-38
0.9624145 0.3099995 3.5549738 1.8804201e-38
0.96635866 0.31018499 3.5582786 1.9449169e-38
0.9677096 0.31033844 3.5549827 1.9357334e-38
0.97020251 0.31098554 3.5550423 1.9449166e-38
0.96862978 0.3065863 3.5221915 1.9449524e-38
0.96999723 0.30660805 3.518616 1.9633554e-38
0.97292006 0.30668378 3.5175898 1.9449521e-38
0.9716531 0.30772981 3.5051157 2.0003457e-38
0.97376192 0.30768627 3.5039418 1.9911259e-38
0.98347449 0.30776244 3.5169425 1.991162e-38
0.98348379 0.30672351 3.5119984 1.9911259e-38
1.0075921 0.30682659 3.5151458 1.9171184e-38
1.0141978 0.30778822 3.5229428 1.9355937e-38
1.011175 0.30738664 3.5073559 1.889568e-38
1.0133291 0.30735058 3.5061486 1.8987874e-38
1.0209649 0.30772907 3.5213878 1.908007e-38
1.0214852 0.30733192 3.5175405 1.9172266e-38
1.0257483 0.30666116 3.5190487 1.9080071e-38
1.0275078 0.30740064 3.5179191 1.908007e-38
1.0299807 0.30743808 3.5188591 1.926446e-38
1.0322986 0.30744717 3.518086 1.9172266e-38
1.0360248 0.30476695 3.5209708 2.0648829e-38
1.0374269 0.30588767 3.5068743 2.0648478e-38
1.0417923 0.30499554 3.5134044 2.0740312e-38
1.0475054 0.30693039 3.5211473 1.8894964e-38
1.0511273 0.30762738 3.5231144 1.8895324e-38
1.059165 0.30949751 3.5314732 1.8526906e-38
1.0609529 0.30782327 3.5317066 2.0557001e-38
1.0636213 0.30813244 3.5317795 2.0557001e-38
1.0665002 0.30894414 3.5165558 1.871308e-38
1.0652133 0.30708599 3.510788 1.8528687e-38
1.0921801 0.30757678 3.5112863 1.6036535e-38
1.1115943 0.30738795 3.50034 1.4003931e-38
1.1406889 0.311131 3.555136 9.5825175e-39
1.1421237 0.31120428 3.552444 8.7527694e-39
1.1443882 0.31096321 3.5533149 7.6471478e-39
1.1466854 0.31267908 3.5547593 7.1861766e-39
1.1471809 0.31274587 3.5515616 5.7121339e-39
0.66301543 0.31396371 3.6355026 1.4094673e-38
0.66634119 0.31479606 3.6403735 1.3725894e-38
0.71870643 0.31313288 3.6145294 1.2344775e-38
0.72094429 0.31320772 3.6126037 1.2160741e-38
0.72169143 0.31250393 3.6072564 1.2437327e-38
0.72205341 0.31270066 3.6059272 1.2621358e-38
0.72708553 0.3146784 3.6016872 1.6583958e-38
0.84213769 0.31588817 3.620996 5.4355499e-39
0.86322606 0.31520537 3.6187072 1.2070725e-38
0.86600178 0.31473383 3.6182017 1.0687063e-38
0.86843389 0.31470698 3.6187942 1.2254738e-38
0.86982816 0.31364593 3.6075289 1.5391169e-38
0.87057978 0.31355289 3.6011958 1.7143593e-38
0.87240058 0.31307921 3.5977371 1.7325106e-38
0.87248451 0.31339321 3.5923238 1.7513446e-38
0.87308979 0.31431407 3.5897589 1.7882232e-38
0.87232506 0.3136203 3.5833917 1.8066623e-38
0.87697017 0.31489572 3.5891302 1.8436487e-38
0.88410348 0.31483766 3.5981412 1.8249582e-38
0.88635719 0.3140693 3.5979145 1.7973358e-38
0.89191997 0.31443945 3.602644 1.8434694e-38
0.89488602 0.31434965 3.6047144 1.8436131e-38
0.87919301 0.30835795 3.5367439 1.7143953e-38
0.88656127 0.31111324 3.5522587 1.852833e-38
0.89153296 0.30993247 3.5627482 1.8528331e-38
0.89047378 0.3109096 3.555042 1.8712722e-38
0.8979367 0.31185898 3.5687084 1.8804917e-38
0.93660563 0.30886537 3.5165925 1.9635395e-38
0.93555987 0.30837101 3.5078886 1.9358449e-38
0.93741566 0.30831084 3.5054245 1.972723e-38
0.94315481 0.30855167 3.5149605 1.8527974e-38
0.95738983 0.31213671 3.5538592 1.9450607e-38
0.9697963 0.30912209 3.5129321 2.0188204e-38
0.97201109 0.30896962 3.5118856 2.0188204e-38
0.98239195 0.31031251 3.529 1.9818301e-38
0.98694468 0.3105748 3.5172534 1.9171185e-38
0.98943347 0.31072479 3.5163536 1.9355935e-38
0.99523681 0.30991197 3.5156262 1.9079348e-38
1.0046813 0.308577 3.5131695 1.9447771e-38
1.0081558 0.30925614 3.5169487 1.9171185e-38
1.0139374 0.31034797 3.5230937 1.9356297e-38
1.0165688 0.31023026 3.517844 1.9171907e-38
1.0218077 0.31206074 3.5223589 2.101725e-38
1.0198303 0.30988401 3.515754 1.8988917e-38
1.0205786 0.3100206 3.5118353 1.8987874e-38
1.0248281 0.30982479 3.5151362 1.9449181e-38
1.0273528 0.30913118 3.5159056 1.9356983e-38
1.0278199 0.30937853 3.5129483 1.908007e-38
1.0315918 0.30955407 3.5151618 1.9172626e-38
1.0366439 0.30843735 3.5204716 2.0649192e-38
1.0403105 0.30955639 3.5082855 2.0740675e-38
1.046338 0.31023091 3.5150609 2.0648839e-38
1.0504721 0.30926162 3.5166917 1.8527984e-38
1.0471544 0.30813801 3.5044308 2.0464811e-38
1.0610609 0.31213048 3.5253515 2.0372254e-38
1.0652369 0.31290099 3.5283499 2.0187861e-38
1.0641588 0.31210992 3.518101 1.8620886e-38
1.0628047 0.30964553 3.506567 1.8620884e-38
1.0627737 0.31035423 3.5032284 1.8620525e-38
1.1142659 0.31250003 3.507663 1.4188682e-38
1.1397913 0.31399998 3.5519273 9.2141007e-39
1.1404841 0.31319079 3.5544915 9.3984906e-39
1.142933 0.31396553 3.5527601 9.1219149e-39
1.144416 0.31376162 3.5532773 8.2921556e-39
1.1458513 0.31475323 3.553133 7.4631208e-39
1.1470033 0.3146404 3.5490139 5.2518803e-39
0.66531008 0.31664836 3.6381555 1.3633339e-38
0.71600968 0.31549063 3.6251271 1.2805749e-38
0.72719169 0.31645903 3.6016142 1.6768348e-38
0.73153543 0.31653219 3.6055017 1.732116e-38
0.73534262 0.31646281 3.6026294 1.5662361e-38
0.73750347 0.31719106 3.6035452 1.5846034e-38
0.78475791 0.31777114 3.6117263 1.7319706e-38
0.7882725 0.31694251 3.6054342 1.6306282e-38
0.79038763 0.31618053 3.6042595 1.5845671e-38
0.79440594 0.31706387 3.601084 1.4186869e-38
0.79726309 0.31682897 3.6011875 1.3911012e-38
0.80067343 0.31727338 3.6042478 1.4556379e-38
0.80305272 0.31723526 3.6037834 1.3726982e-38
0.80633509 0.31732282 3.6053607 1.3082332e-38
0.83608055 0.31744418 3.6149404 5.7117724e-39
0.83753693 0.31700933 3.6116688 5.896528e-39
0.85635895 0.31782556 3.6092527 1.1425358e-38
0.86014509 0.31774744 3.6110253 1.391499e-38
0.86315888 0.31777155 3.612416 1.4931291e-38
0.86594754 0.3179777 3.612793 1.3269229e-38
0.86829364 0.31586492 3.6013584 1.6775181e-38
0.8660304 0.31512004 3.5860956 1.7421258e-38
0.87076455 0.31540388 3.5917382 1.7790399e-38
0.87060279 0.31611556 3.5869079 1.7972274e-38
0.87392014 0.31684029 3.5911796 1.8435767e-38
0.87696254 0.31707612 3.5846832 1.9174052e-38
0.87761122 0.31767648 3.5828431 1.963431e-38
0.89385921 0.31652009 3.6075375 1.8803475e-38
0.8956359 0.3164857 3.6053746 1.8712361e-38
0.88595325 0.31170917 3.5609317 1.9264803e-38
0.88810551 0.31471419 3.5624454 1.6590756e-38
0.89348507 0.31476942 3.5712404 1.6775867e-38
0.89477473 0.31278449 3.5646493 1.871236e-38
0.8931464 0.31279555 3.5471373 1.9542466e-38
0.89800638 0.31197244 3.5513408 1.9727216e-38
0.89957488 0.31374022 3.5551772 1.97265e-38
0.92672849 0.3124297 3.5127752 1.9911975e-38
0.93105507 0.3123284 3.5159817 2.0004173e-38
0.936764 0.31244829 3.5242248 2.0096369e-38
0.94070959 0.31207943 3.5242348 1.9819426e-38
0.93789417 0.31068525 3.5060186 2.0003817e-38
0.93863219 0.31134519 3.5022528 1.9911623e-38
0.95177794 0.31504434 3.5455108 1.8711648e-38
0.95369983 0.31515551 3.5445089 1.9172267e-38
0.95522726 0.31551471 3.5430484 2.0095653e-38
0.96151352 0.31585324 3.549624 2.0187848e-38
0.96165705 0.31289464 3.5155599 1.9542838e-38
0.96642947 0.31209245 3.5173004 2.0280757e-38
0.96912271 0.31270346 3.522541 1.9634675e-38
0.97166228 0.3114644 3.5103464 2.0188564e-38
0.98249888 0.31276622 3.5294943 1.9449522e-38
0.9840942 0.31299242 3.5271976 1.9633915e-38
0.98786294 0.31305903 3.531158 1.9541722e-38
0.98942423 0.31238779 3.5282516 1.9633919e-38
0.98870522 0.31297636 3.5192463 1.9448131e-38
0.99015766 0.31212056 3.5166104 1.9355937e-38
0.9906947 0.3101916 3.5007792 1.8895317e-38
1.0080655 0.31254405 3.5151517 1.9171548e-38
1.0098774 0.31036443 3.5075631 1.9263742e-38
1.0099138 0.30985284 3.5032678 1.9080429e-38
1.0140665 0.3111282 3.5078206 1.8988235e-38
1.019922 0.31200543 3.5166769 1.8987874e-38
1.0203956 0.31324461 3.5147231 1.9079711e-38
1.0228901 0.31300887 3.5143692 1.8803482e-38
1.0257473 0.31336215 3.5152743 1.8710929e-38
1.0304117 0.31373537 3.5193255 1.8895677e-38
1.0314692 0.3134234 3.514019 1.9172955e-38
1.0330309 0.31338456 3.5119834 1.9449902e-38
1.0329663 0.31310174 3.5037701 1.9265152e-38
1.0347185 0.31324106 3.501143 1.8988925e-38
1.0424688 0.3139469 3.5141323 2.1754468e-38
1.0407573 0.3120622 3.5053871 2.0556643e-38
1.0497781 0.31350744 3.5178812 1.8342875e-38
1.0506012 0.31317246 3.5146568 2.0096388e-38
1.0520667 0.31309351 3.5126574 2.0372254e-38
1.0546182 0.31308532 3.5118716 2.0280058e-38
1.0592214 0.31472749 3.517313 2.0096024e-38
1.0689462 0.31398836 3.530627 1.9911274e-38
1.0603541 0.31186604 3.501358 1.8713439e-38
1.1101605 0.3137148 3.5002856 9.8583967e-39
1.1179188 0.31434429 3.5090678 8.5687397e-39
1.1406394 0.31520301 3.5528414 9.3055761e-39
1.1420232 0.31692046 3.5564008 9.2144567e-39
1.1419209 0.31664991 3.5513153 8.8453266e-39
1.144931 0.31647223 3.5541024 8.2925158e-39
1.1455234 0.31736952 3.5525155 7.186534e-39
1.1484317 0.31727642 3.5529928 5.7124927e-39
0.78175652 0.32096094 3.6137228 1.7503372e-38
0.78373599 0.32028878 3.6093295 1.7228223e-38
0.78679383 0.32012486 3.6079273 1.7412978e-38
0.78904325 0.320007 3.6075702 1.741262e-38
0.79285663 0.3189033 3.6081808 1.7044559e-38
0.79390597 0.31896058 3.6047664 1.7136756e-38
0.79545921 0.31953269 3.6034222 1.6308073e-38
0.7972188 0.31931153 3.6012077 1.6124048e-38
0.79979807 0.31968382 3.60235 1.6585027e-38
0.80184019 0.31925803 3.6004555 1.5571598e-38
0.80722344 0.31978208 3.6062412 1.5571596e-38
0.80979156 0.32017294 3.6079822 1.5756348e-38
0.8115049 0.31971413 3.6047132 1.4096126e-38
0.81564403 0.32024118 3.6081059 1.3543317e-38
0.82213825 0.31970316 3.6102912 1.1147684e-38
0.83528095 0.31902719 3.6112394 6.2645833e-39
0.83568084 0.31919026 3.6046822 6.5415289e-39
0.83876002 0.3190023 3.6054089 6.4489745e-39
0.8456586 0.31952441 3.5988903 1.1610835e-38
0.84831476 0.3197034 3.597976 1.105765e-38
0.8530094 0.31994921 3.5971553 1.4745104e-38
0.85551614 0.32035401 3.5989053 1.6129109e-38
0.85877335 0.31992444 3.6003087 1.6406772e-38
0.86399037 0.3195321 3.6023085 1.686882e-38
0.86730278 0.31952143 3.6029463 1.7698217e-38
0.86685139 0.31783587 3.5855825 1.8528328e-38
0.86384034 0.31820828 3.5716522 1.797295e-38
0.8685531 0.31827256 3.5775423 1.8434331e-38
0.87199605 0.31842741 3.583128 1.9358083e-38
0.86889941 0.31531575 3.5670419 1.843577e-38
0.87337643 0.31876957 3.5712121 1.9173694e-38
0.8817926 0.31804889 3.5841377 1.8804911e-38
0.88173532 0.31898871 3.5748615 1.9081857e-38
0.88177925 0.31563175 3.5595727 1.9081498e-38
0.88538116 0.3160966 3.5596819 1.9542475e-38
0.88962716 0.31914485 3.5742073 1.9451001e-38
0.8894363 0.31520441 3.5524423 1.8988588e-38
0.89068979 0.31482521 3.5462501 1.9542468e-38
0.89226657 0.31488693 3.5425568 1.861873e-38
0.89389277 0.31496525 3.5390387 1.9727218e-38
0.90119946 0.31614673 3.5557256 2.0096002e-38
0.92332351 0.31370661 3.5122516 1.8619453e-38
0.92529953 0.31361711 3.511833 1.8619095e-38
0.92658633 0.31431103 3.5100362 2.000417e-38
0.92907602 0.31458783 3.5096686 2.0188204e-38
0.93420082 0.31473055 3.5142145 2.0188566e-38
0.94864416 0.31629479 3.5426176 2.0095651e-38
0.9519133 0.31657028 3.5436885 2.0280403e-38
0.95251989 0.31609291 3.5446665 2.0280764e-38
0.95587713 0.31767163 3.5463383 2.0188208e-38
0.95925719 0.31796399 3.5490124 2.0096372e-38
0.96183485 0.31797248 3.549665 2.0096013e-38
0.96214283 0.31495807 3.5114102 2.018856e-38
0.97312599 0.3149834 3.5141921 1.9912336e-38
0.98767668 0.31585345 3.5309587 1.9633918e-38
0.98601967 0.31557882 3.5133474 2.0280045e-38
0.99179029 0.31392023 3.517849 1.9542089e-38
1.0026977 0.31423905 3.5037708 1.9264103e-38
1.0098555 0.31309533 3.5101571 1.9263742e-38
1.0112491 0.31346408 3.5047567 1.9264461e-38
1.0139509 0.31377494 3.5043721 1.908043e-38
1.0177333 0.31495041 3.508085 1.8988233e-38
1.0220598 0.31471339 3.5113652 1.8896038e-38
1.0294651 0.3163524 3.520015 1.889532e-38
1.0332714 0.31632805 3.5229514 1.908007e-38
1.0313339 0.3150062 3.5127752 1.9080073e-38
1.0299833 0.31496191 3.5024846 1.8988927e-38
1.0364492 0.31516138 3.5122092 2.0832863e-38
1.0399784 0.31606162 3.5149667 2.0464444e-38
1.0368367 0.31364283 3.5016291 2.0464804e-38
1.0401698 0.31447583 3.5041289 2.0648838e-38
1.0481379 0.31663451 3.5148892 2.0464088e-38
1.0558389 0.31505868 3.5076234 2.0003468e-38
1.0697501 0.31753695 3.5268278 1.9726163e-38
1.1029114 0.31582499 3.5021698 1.5847828e-38
1.1314049 0.31647119 3.5364389 9.5814497e-39
1.1337141 0.31800658 3.5391047 9.305223e-39
1.1416695 0.32045007 3.5559659 9.1215422e-39
1.142455 0.31888771 3.5547364 8.6609283e-39
1.1438885 0.31904852 3.5528605 8.19996e-39
1.1461749 0.31884977 3.5505927 6.0805535e-39
1.1476854 0.31917995 3.5498888 4.8827334e-39
0.78024739 0.32280576 3.6069055 1.8333849e-38
0.78272456 0.32249385 3.60606 1.8519318e-38
0.78472143 0.32160807 3.6024408 1.7874313e-38
0.78829187 0.32191572 3.6062319 1.8151259e-38
0.79212475 0.32180101 3.6091805 1.8243454e-38
0.79527992 0.32210663 3.6088202 1.8152338e-38
0.79773182 0.3226234 3.6100621 1.8245611e-38
0.80127579 0.32227886 3.6123981 1.8153418e-38
0.80340093 0.32228816 3.6119764 1.796939e-38
0.80548924 0.3218998 3.6095777 1.7876838e-38
0.80869323 0.32175124 3.6096866 1.7047799e-38
0.80958384 0.32210806 3.6065025 1.6771937e-38
0.81221157 0.32178214 3.6054432 1.5664877e-38
0.81495839 0.32153228 3.6051929 1.4005369e-38
0.8194291 0.32196131 3.608186 1.3176324e-38
0.82220435 0.3219173 3.6090002 1.0871814e-38
0.82482493 0.32307813 3.6099195 1.29001e-38
0.82881618 0.32274762 3.612783 1.2069989e-38
0.83247876 0.32265341 3.6104317 1.1057285e-38
0.83401167 0.32266873 3.6081398 1.1518622e-38
0.83640754 0.32268623 3.6079946 1.133459e-38
0.83818549 0.32190782 3.6038144 1.0043501e-38
0.84349692 0.32117105 3.599648 1.1611181e-38
0.84505695 0.32133782 3.5991166 1.3270337e-38
0.84612542 0.32195637 3.5962164 1.4192645e-38
0.84730369 0.32209775 3.5942698 1.4561422e-38
0.85050434 0.32132649 3.5930188 1.3546167e-38
0.85334677 0.3209224 3.5916767 1.6683717e-38
0.85457796 0.32091618 3.5887764 1.456103e-38
0.86094201 0.3211371 3.5980749 1.7237602e-38
0.86223751 0.32114112 3.5904641 1.5852839e-38
0.86280668 0.32068214 3.5868719 1.8620528e-38
0.86501241 0.32046238 3.5811629 1.8989309e-38
0.86573505 0.32045329 3.5733621 1.8619801e-38
0.86679006 0.32076102 3.5729258 1.9358444e-38
0.86922657 0.32022253 3.5716195 1.9266245e-38
0.86936975 0.31870437 3.5665562 1.9358083e-38
0.87443262 0.31939936 3.5697629 1.9173694e-38
0.8787787 0.31898648 3.5712693 1.9265889e-38
0.87992132 0.31927052 3.569458 1.8898186e-38
0.87749231 0.31786025 3.5563195 1.9358086e-38
0.87786114 0.31707904 3.5507486 1.6314175e-38
0.88702053 0.31741822 3.5595491 1.9634672e-38
0.8911317 0.32069257 3.5712354 1.6685475e-38
0.88861674 0.31810787 3.5511005 1.9911612e-38
0.890724 0.31841329 3.5489538 2.0003087e-38
0.89365315 0.31920826 3.549325 1.9727939e-38
0.89470196 0.31930897 3.5475399 1.9819775e-38
0.8968544 0.3189733 3.5466313 2.0003089e-38
0.90308732 0.31935379 3.5559764 1.9816874e-38
0.9073115 0.31781811 3.5293577 2.0004168e-38
0.91001922 0.31756693 3.5290935 1.9358439e-38
0.91040593 0.3172093 3.5214293 2.0004522e-38
0.91118032 0.31706232 3.517004 1.9820131e-38
0.9110626 0.31702378 3.508745 1.9635741e-38
0.91537195 0.31618184 3.5163286 1.889568e-38
0.91486156 0.31646997 3.5114851 1.9912326e-38
0.91892332 0.31604466 3.5123489 2.0004525e-38
0.92359841 0.31619787 3.5136607 2.0096006e-38
0.92492646 0.31649935 3.5118201 1.9819779e-38
0.92747229 0.31684768 3.5116644 2.0004172e-38
0.9293381 0.31664655 3.5083108 1.9542832e-38
0.9343394 0.31643802 3.5153749 1.9635029e-38
0.94213796 0.31921726 3.5330148 2.0188206e-38
0.95279795 0.31993666 3.5501187 2.0465151e-38
0.95405656 0.31981674 3.5470748 2.0557348e-38
0.95591801 0.31990325 3.5461667 2.0464791e-38
0.95915163 0.32010281 3.5481288 2.0280401e-38
0.96279782 0.32008877 3.5511596 1.9912338e-38
0.96525466 0.32019663 3.5485289 2.0188925e-38
0.96090591 0.31671596 3.5080812 2.0188562e-38
0.96486664 0.31781781 3.510782 2.028004e-38
0.968633 0.31857637 3.5167627 2.0096726e-38
0.9706645 0.31760296 3.5173445 2.0096726e-38
0.98635656 0.31871268 3.5340018 1.9725755e-38
0.98938036 0.31789967 3.5323343 1.9910147e-38
1.0193044 0.31696036 3.5062709 1.8896038e-38
1.0270864 0.31802145 3.5154819 1.8803483e-38
1.0325347 0.3162792 3.5083864 2.0648471e-38
1.0391358 0.31717747 3.5079191 2.0187855e-38
1.0398667 0.31685048 3.5044515 2.0464442e-38
1.0486387 0.31932384 3.5169117 2.0372605e-38
1.0529054 0.31783378 3.5150054 2.0003467e-38
1.0542393 0.31824875 3.5115814 1.9634326e-38
1.0589926 0.31853122 3.5117788 1.9910552e-38
1.0672594 0.31907943 3.5287809 2.0002751e-38
1.0688422 0.31908438 3.527117 1.9910913e-38
1.0883055 0.31820318 3.5073366 1.5576638e-38
1.096894 0.31692964 3.5036643 1.2531315e-38
1.1022246 0.31814897 3.5006785 1.5847829e-38
1.1149144 0.32314569 3.52124 1.4741486e-38
1.116919 0.32291651 3.5188839 1.4188677e-38
1.1273764 0.31927386 3.5263011 1.1238788e-38
1.1406199 0.32205227 3.5489235 8.1074e-39
1.1412311 0.32130781 3.5521584 8.5687327e-39
1.1424668 0.32214037 3.5502257 7.5545892e-39
1.1479188 0.32210964 3.5563545 6.8177514e-39
1.1462908 0.32194966 3.5483291 5.4359058e-39
1.1455613 0.32138905 3.5417874 3.5938009e-39
0.78277922 0.32599357 3.6394989 1.8056549e-38
0.77963454 0.32492292 3.6184738 1.8333852e-38
0.78042644 0.32479027 3.6100931 1.8427483e-38
0.78149503 0.32475603 3.606122 1.8704425e-38
0.78299636 0.32353914 3.6014576 1.8612591e-38
0.78684705 0.32379505 3.60446 1.8890256e-38
0.790254 0.32477072 3.609726 1.640134e-38
0.79364729 0.32483196 3.6113753 1.9167563e-38
0.79574335 0.32481003 3.6106844 1.926012e-38
0.79430217 0.32386965 3.6019216 1.889062e-38
0.8017028 0.32494116 3.6140976 1.9352321e-38
0.80616075 0.32430524 3.6147082 1.8707315e-38
0.80793947 0.32517287 3.6126165 1.8524004e-38
0.80800402 0.32438427 3.6055212 1.8615485e-38
0.80911249 0.32420984 3.6008143 1.7416945e-38
0.81211871 0.32329762 3.5978978 1.5389369e-38
0.8152101 0.32367116 3.6003525 1.5389368e-38
0.81679195 0.32503992 3.5996292 1.5851058e-38
0.82061023 0.32526985 3.6011031 1.5389371e-38
0.82704341 0.32513699 3.6109934 1.1887746e-38
0.82880783 0.32506648 3.6088068 1.5389367e-38
0.8304351 0.32486218 3.606523 1.5297895e-38
0.83356553 0.3248865 3.6061344 1.4929473e-38
0.83486712 0.32445651 3.6030791 1.4561772e-38
0.83741361 0.32413504 3.6017468 1.4653252e-38
0.83872306 0.32397839 3.5961165 1.4837999e-38
0.83934879 0.32367086 3.5905161 1.4654328e-38
0.84379673 0.32424355 3.5957389 1.594434e-38
0.845002 0.32421243 3.5933712 1.6221284e-38
0.84756136 0.32463866 3.5942883 1.7143593e-38
0.85036039 0.32385316 3.5922291 1.7235793e-38
0.85286885 0.32366133 3.5909755 1.7790052e-38
0.85655487 0.3235516 3.5937054 1.8067e-38
0.86071414 0.32316357 3.5945175 1.7883683e-38
0.86018699 0.32352781 3.5862291 1.8897472e-38
0.86198348 0.32443622 3.5874448 1.8989668e-38
0.86292911 0.32198972 3.5723467 1.9358808e-38
0.86394197 0.3225497 3.5685787 1.8896751e-38
0.86615771 0.32245496 3.5672481 1.9451357e-38
0.86916232 0.32171431 3.5677259 1.9359161e-38
0.87234616 0.32153651 3.5662298 1.9358445e-38
0.87316662 0.32123744 3.5625744 1.9543195e-38
0.87129807 0.32048303 3.5502865 1.9174052e-38
0.87618828 0.32045159 3.5543044 1.9634672e-38
0.87643844 0.32049537 3.5484772 1.9450999e-38
0.88403666 0.32037365 3.5601854 1.9543196e-38
0.88660234 0.32048896 3.5594172 1.9911978e-38
0.89216733 0.32322419 3.57231 2.0096728e-38
0.89395511 0.32380536 3.5742025 2.0004535e-38
0.89456087 0.32081169 3.558929 1.9819415e-38
0.89507025 0.32101154 3.5551789 2.0372587e-38
0.8971951 0.32321161 3.5581145 1.7790385e-38
0.90172344 0.32279399 3.5609355 1.9635392e-38
0.90308124 0.32197917 3.555933 1.8987872e-38
0.90535551 0.32033688 3.5263488 1.9818672e-38
0.90769982 0.32008961 3.5296581 1.9911973e-38
0.91017032 0.32018444 3.5297832 1.9820135e-38
0.9130559 0.31969199 3.526665 1.9727579e-38
0.91396767 0.31930166 3.5245728 1.9912328e-38
0.91383559 0.3196227 3.5185103 1.9911969e-38
0.91397667 0.31941083 3.5112894 2.0096719e-38
0.91618544 0.31989607 3.5100007 2.0188559e-38
0.92108738 0.3194899 3.5170395 2.0096722e-38
0.92256182 0.31940132 3.5115418 2.0096725e-38
0.92308766 0.31892896 3.5080142 2.000417e-38
0.9265514 0.31933299 3.511049 2.0188562e-38
0.93012774 0.31971878 3.5143073 2.028076e-38
0.93409812 0.31998104 3.5155346 1.9542473e-38
0.94507986 0.32121664 3.5384257 2.0096009e-38
0.94285083 0.32091147 3.52917 2.0556988e-38
0.95057368 0.32086146 3.5407081 2.0649184e-38
0.95453393 0.32196808 3.546622 2.0373314e-38
0.95760185 0.32211229 3.5471864 2.0465151e-38
0.96111524 0.32219347 3.5490103 2.028076e-38
0.96215266 0.32179713 3.545717 2.0188564e-38
0.96195465 0.32168075 3.5378978 2.0186378e-38
0.96437055 0.32170376 3.5371516 1.9172266e-38
0.96701711 0.32119465 3.5232582 2.0096725e-38
0.96919358 0.32140183 3.5231509 2.0280757e-38
0.97041148 0.32066596 3.5172882 2.0004172e-38
0.97338921 0.32123861 3.5214808 1.9726867e-38
0.98117036 0.32103637 3.530421 1.9909789e-38
0.9814617 0.32135549 3.5220439 2.0465151e-38
0.98331499 0.32177785 3.5200109 2.03726e-38
0.98476654 0.32103831 3.5185411 2.0648827e-38
0.98774749 0.32153183 3.5206962 2.0372601e-38
0.99027544 0.32131475 3.5191417 2.0372601e-38
1.0117546 0.31812742 3.5010293 1.908007e-38
1.0243366 0.31967074 3.5061171 1.8803123e-38
1.0323485 0.3209098 3.5139573 1.8803487e-38
1.034586 0.318371 3.5068328 2.0372244e-38
1.0508536 0.3196412 3.5109015 1.9819433e-38
1.0548183 0.32134476 3.5111294 1.944993e-38
1.0576485 0.3208591 3.5085695 2.0002387e-38
1.0623248 0.31942219 3.511929 2.0094581e-38
1.0637271 0.31910619 3.5084622 1.9909106e-38
1.1104202 0.32468468 3.5164392 1.5110627e-38
1.1156765 0.32518032 3.5162346 1.3912094e-38
1.1211687 0.32294515 3.520735 1.2713915e-38
1.1275992 0.32179767 3.5291908 8.7531226e-39
1.1309613 0.32123068 3.5309787 7.7386189e-39
1.1377982 0.32593387 3.546113 9.214821e-39
1.1426722 0.32621169 3.5526299 8.5694558e-39
1.1430042 0.32310107 3.5450318 6.1727464e-39
1.1459044 0.32461932 3.547672 5.4359058e-39
0.77862954 0.32768923 3.6209977 1.8610796e-38
0.77975827 0.32753772 3.6182873 1.8795548e-38
0.77822417 0.32701406 3.6052217 1.9349437e-38
0.77709377 0.32561299 3.5935857 1.9073568e-38
0.78006995 0.3252283 3.5902913 1.9258319e-38
0.78360248 0.32578775 3.5947847 1.9444147e-38
0.78938657 0.32698664 3.6033952 1.9628898e-38
0.79194337 0.3263776 3.605391 1.9628901e-38
0.79538095 0.32659799 3.6091444 1.9905848e-38
0.79603744 0.32728255 3.6065459 1.9998764e-38
0.80178231 0.32853976 3.6167395 1.9906571e-38
0.80247152 0.32623151 3.6057739 1.9076815e-38
0.80958605 0.32685429 3.6141112 1.8339969e-38
0.8076911 0.32585549 3.6038263 1.889351e-38
0.80952775 0.32655689 3.6012807 1.806375e-38
0.80898494 0.32410756 3.5803359 1.3453981e-38
0.81388515 0.32586241 3.5864661 1.6496066e-38
0.81674522 0.32751518 3.5956514 1.7787874e-38
0.82076108 0.3276172 3.5999889 1.4470283e-38
0.82585096 0.32714847 3.6074483 1.7787156e-38
0.82827443 0.32701749 3.6052952 1.732618e-38
0.8298924 0.32693616 3.604605 1.7695324e-38
0.8332783 0.32710066 3.605346 1.7510932e-38
0.83471626 0.32796076 3.6038473 1.8248496e-38
0.83701563 0.32735929 3.6006465 1.7880434e-38
0.83755094 0.32660484 3.5931258 1.7235423e-38
0.83917046 0.32629812 3.590389 1.7696403e-38
0.84164685 0.32648936 3.5903311 1.7235783e-38
0.84518003 0.3268804 3.5920777 1.806626e-38
0.84705848 0.32698569 3.5919955 1.8067338e-38
0.84898341 0.32673833 3.5885496 1.8251013e-38
0.85174644 0.32662046 3.5875568 1.7975153e-38
0.8560124 0.32595852 3.5914984 1.8436133e-38
0.85807729 0.32559156 3.5892081 1.8345015e-38
0.85853201 0.3263101 3.5845578 1.9082941e-38
0.85781491 0.32554185 3.5758514 1.9082581e-38
0.86199331 0.32606417 3.5774553 1.9912342e-38
0.86386389 0.32531205 3.5727105 1.991234e-38
0.86835837 0.3254953 3.5741603 1.9635751e-38
0.86732608 0.32453391 3.5666001 1.9727946e-38
0.86981064 0.32389331 3.5597994 1.9543196e-38
0.87132013 0.32543853 3.5599735 1.9543915e-38
0.86999357 0.32317406 3.5466802 1.9635751e-38
0.87368679 0.32211623 3.547508 1.9727228e-38
0.87772465 0.32322571 3.5478716 1.9635392e-38
0.88032174 0.32287535 3.5479012 2.0188925e-38
0.87812978 0.32215124 3.5362868 1.8434343e-38
0.89065194 0.3242335 3.5633726 1.742232e-38
0.89258438 0.32459521 3.5642488 1.7514155e-38
0.89233607 0.32355034 3.5513456 1.7605994e-38
0.88965833 0.32285342 3.5381007 2.0280034e-38
0.89153999 0.32322115 3.5362868 2.037259e-38
0.89412642 0.32351914 3.5382445 1.7698548e-38
0.903952 0.32423067 3.5576687 1.9910506e-38
0.90283883 0.32547456 3.5499032 1.9541044e-38
0.90840584 0.3244729 3.5536866 2.0280393e-38
0.90347224 0.32181108 3.520786 1.9726835e-38
0.90814823 0.32173827 3.5251286 2.0096004e-38
0.91432303 0.32275376 3.53824 2.0096365e-38
0.91695809 0.32285178 3.5392916 2.0188559e-38
0.91641581 0.32241639 3.5291927 2.0188559e-38
0.91676694 0.32208639 3.5218465 2.0096365e-38
0.92131937 0.32198501 3.5260742 2.037223e-38
0.92178679 0.32304528 3.5265086 2.0281116e-38
0.91887969 0.32176831 3.5124912 2.0465146e-38
0.9220621 0.32242498 3.5132523 2.0465149e-38
0.92710173 0.32108364 3.516499 2.0372593e-38
0.92710561 0.32220185 3.5110714 2.0188562e-38
0.93089169 0.32385847 3.5183141 1.9819416e-38
0.93537772 0.32378078 3.5241313 2.0096726e-38
0.93869191 0.3241688 3.5262015 2.0188564e-38
0.94472462 0.32431978 3.5349209 2.0372956e-38
0.94971365 0.32414234 3.5390296 2.0188923e-38
0.95337254 0.32370111 3.5419903 2.0188206e-38
0.95445597 0.32364994 3.5385561 2.0372956e-38
0.95924884 0.32490656 3.5449781 2.037224e-38
0.96094704 0.32489985 3.5438669 2.0096372e-38
0.96514523 0.32430369 3.5430319 1.9264461e-38
0.96617281 0.32406849 3.5398862 2.0280759e-38
0.96731389 0.32448715 3.5373962 2.0281119e-38
0.96861428 0.32398167 3.5247118 2.009529e-38
0.96927416 0.32341743 3.5187533 1.9818703e-38
0.97217935 0.32306486 3.5179427 1.9819064e-38
0.97271788 0.32273713 3.5126624 2.0557708e-38
0.97902286 0.32191011 3.5165195 2.0372956e-38
0.98624438 0.32441616 3.5258768 2.0004535e-38
0.99008131 0.32465181 3.5235262 2.0004177e-38
0.99200284 0.32483569 3.5229702 1.9912702e-38
1.0079886 0.32291323 3.5007503 1.889568e-38
1.0232147 0.32184067 3.5037858 1.871165e-38
1.0293821 0.32272109 3.5119298 1.8711289e-38
1.0494153 0.32371944 3.5052152 1.9910541e-38
1.0553824 0.32421952 3.511884 1.9726151e-38
1.0583367 0.32210529 3.508574 2.0002384e-38
1.0621625 0.32206124 3.5116692 2.0001302e-38
1.0606464 0.32320809 3.5046766 1.7236494e-38
1.1164329 0.32464063 3.5121949 1.3358204e-38
1.1355168 0.32526845 3.5369539 7.9237333e-39
1.1369842 0.32592243 3.5381041 7.2787254e-39
1.1417508 0.32635462 3.5425589 5.4359016e-39
0.77678543 0.32896805 3.6127787 1.8796984e-38
0.77671647 0.32825765 3.6058812 1.8520397e-38
0.77756613 0.3283169 3.6010764 1.9443071e-38
0.77722001 0.32778123 3.5911913 1.9535628e-38
0.77964956 0.32776564 3.5899911 1.9535985e-38
0.7866888 0.32888606 3.6013496 1.9721097e-38
0.78721005 0.32899615 3.598623 1.9814009e-38
0.79198784 0.32885987 3.6034589 1.7325088e-38
0.79704976 0.32850021 3.6106267 1.7417644e-38
0.7914359 0.32764652 3.5770576 1.6956311e-38
0.7934438 0.32703778 3.5763655 1.640314e-38
0.80077374 0.32770658 3.5962417 1.6772279e-38
0.79973334 0.33006421 3.5894725 1.7049584e-38
0.80751449 0.32713127 3.5897808 1.5481552e-38
0.80872899 0.32773471 3.5886388 1.7512006e-38
0.81055868 0.32802927 3.5851822 1.6957773e-38
0.80926609 0.32750943 3.5753973 1.7419093e-38
0.81696057 0.32720298 3.5863142 1.5759602e-38
0.82033056 0.3275145 3.5909905 1.7326537e-38
0.82586896 0.32895365 3.6049769 1.8893863e-38
0.82939023 0.32859614 3.6031206 1.8710188e-38
0.82993507 0.329954 3.602942 1.9632863e-38
0.83278227 0.32989526 3.6016924 1.9448474e-38
0.83560485 0.32956013 3.6048963 1.9263005e-38
0.83775479 0.32978246 3.6012433 1.9449196e-38
0.83840775 0.32985657 3.5961962 1.9264803e-38
0.84015924 0.3296496 3.5935802 1.8988577e-38
0.84101033 0.32853773 3.5878263 1.8435044e-38
0.84475118 0.32945698 3.591888 1.9173332e-38
0.84437132 0.32986853 3.5863349 1.9173332e-38
0.84790993 0.32958069 3.5872731 1.9081497e-38
0.84973514 0.32926121 3.5846927 1.9173334e-38
0.85433471 0.32911375 3.5869436 1.9634672e-38
0.85607004 0.32906371 3.5855429 1.9451361e-38
0.85928857 0.32902369 3.5865295 1.9452083e-38
0.85977024 0.32904091 3.5823178 1.954428e-38
0.85921687 0.32694927 3.5687971 1.991234e-38
0.86547148 0.3278749 3.5739601 1.9728668e-38
0.86355346 0.32626373 3.5594356 1.9912339e-38
0.86509389 0.3260763 3.5570333 2.0004536e-38
0.86960858 0.32643116 3.5590248 1.9727949e-38
0.87167519 0.32605287 3.5561149 1.9727949e-38
0.87270981 0.32615957 3.5545094 1.991234e-38
0.87638789 0.32452956 3.5526886 1.8989665e-38
0.88425326 0.3264403 3.5667405 1.9820505e-38
0.8802284 0.32536948 3.5475643 1.9913058e-38
0.88216084 0.32557222 3.5459135 1.7330845e-38
0.89025301 0.32793647 3.5642698 1.7605994e-38
0.89697772 0.32754979 3.5740864 2.0374392e-38
0.89844322 0.32752395 3.570159 2.0373669e-38
0.89751738 0.32763252 3.5613084 2.0189276e-38
0.89127284 0.32506576 3.5361717 2.0372231e-38
0.89505833 0.32561439 3.5369353 2.0464786e-38
0.90177667 0.32750666 3.5543289 2.0280768e-38
0.90358412 0.3267951 3.5498018 1.9818315e-38
0.90707046 0.3261725 3.5461264 2.037259e-38
0.90853584 0.32600045 3.5425079 2.0465146e-38
0.91245204 0.32510108 3.5400116 2.0557341e-38
0.91548717 0.3246665 3.538862 2.037295e-38
0.91788691 0.32583678 3.5424829 2.0557341e-38
0.91678703 0.32492489 3.5310218 2.0465147e-38
0.91717309 0.32492611 3.527205 2.0465149e-38
0.92041928 0.32584026 3.5296979 2.0372953e-38
0.92204827 0.32591525 3.5285816 2.0373313e-38
0.92835659 0.32698038 3.5400393 2.0372953e-38
0.93081683 0.3269313 3.5404909 2.0373313e-38
0.92544782 0.32395476 3.5120239 2.0464788e-38
0.92939013 0.32601416 3.5194013 1.9911254e-38
0.93009096 0.32588252 3.5154734 2.0464793e-38
0.94110054 0.3282741 3.5430582 2.0189283e-38
0.94177008 0.32828352 3.5375659 2.0096729e-38
0.94367975 0.32831252 3.5349166 2.0189285e-38
0.95398897 0.32562977 3.5421622 2.0095646e-38
0.9540422 0.32662588 3.5422602 2.0741382e-38
0.95589823 0.32698351 3.5430138 2.0833577e-38
0.95728004 0.32628006 3.5384192 2.018821e-38
0.9622798 0.32755822 3.5448208 2.0188567e-38
0.96408409 0.3263413 3.5394571 2.0557708e-38
0.96324337 0.32680684 3.5307677 2.046515e-38
0.96629995 0.32667592 3.532007 2.0649543e-38
0.96811002 0.32790375 3.5362098 2.0557346e-38
0.96484989 0.32632035 3.5162184 2.0557706e-38
0.96829295 0.32569718 3.5167606 2.0188925e-38
0.97069627 0.3260749 3.5166214 2.0097088e-38
0.9734807 0.32364729 3.5130115 2.0649903e-38
0.98850578 0.32631943 3.5341597 2.0188925e-38
0.99015421 0.32660285 3.5333769 2.0188566e-38
0.99116176 0.32797515 3.524992 2.0188569e-38
0.99256331 0.32794943 3.5230021 2.0004538e-38
1.025262 0.32471508 3.5009339 1.8526539e-38
1.0555441 0.32858786 3.5099015 1.9540675e-38
1.0553286 0.32529452 3.5020604 1.9632874e-38
1.0605363 0.32287863 3.5017111 1.8711276e-38
1.1177931 0.32632995 3.5181854 9.952379e-39
1.1296438 0.32741898 3.5322273 8.754203e-39
1.1313002 0.32750598 3.53089 7.6478624e-39
1.1355122 0.32796034 3.5352321 6.4496864e-39
0.77167451 0.33263227 3.6065648 1.8243481e-38
0.77539212 0.33170539 3.6082215 1.9350878e-38
0.77711946 0.33135808 3.6060352 1.9166487e-38
0.77583742 0.33116129 3.5938811 1.9628541e-38
0.77624273 0.33154547 3.5888698 1.9905851e-38
0.77909076 0.33054134 3.584259 1.9998404e-38
0.78486532 0.33075809 3.5925841 2.027535e-38
0.78944635 0.33075503 3.6021979 1.7601672e-38
0.79216921 0.33085421 3.6029246 2.0092398e-38
0.79596817 0.3312819 3.6062901 1.7510198e-38
0.79307789 0.32987669 3.5805817 1.8246704e-38
0.79226041 0.32975906 3.5732479 1.8246702e-38
0.79690254 0.33027002 3.583889 1.7049943e-38
0.80178064 0.33284065 3.5934269 1.7326886e-38
0.80642617 0.33118591 3.5933449 1.7142497e-38
0.80893266 0.32990235 3.5891492 1.8618716e-38
0.80981553 0.33027273 3.5816951 1.8894946e-38
0.81357723 0.33018014 3.5843899 1.8894945e-38
0.8146016 0.330744 3.5800264 1.8893489e-38
0.81863308 0.32984024 3.5818586 1.8157389e-38
0.8183586 0.33051905 3.5758722 1.9077183e-38
0.82137549 0.33009139 3.5787649 1.7510914e-38
0.81927943 0.32951573 3.5667763 1.8708764e-38
0.83190143 0.33160418 3.5962179 2.0186043e-38
0.83579141 0.33166125 3.6002548 1.963395e-38
0.84004557 0.33239612 3.604074 1.9542831e-38
0.84072876 0.33258891 3.6003497 1.9635745e-38
0.84064162 0.33247671 3.5949309 1.9820142e-38
0.84239733 0.33212259 3.5892119 1.9727945e-38
0.84416264 0.33183563 3.587785 1.9726866e-38
0.8420977 0.3308143 3.5639713 1.6960992e-38
0.84662318 0.33123717 3.5689664 1.723794e-38
0.85038972 0.33203191 3.583976 2.0187485e-38
0.85170329 0.33154041 3.5807717 1.9911259e-38
0.85576093 0.33044979 3.5794377 1.9544996e-38
0.86083072 0.33160198 3.5885744 2.0005256e-38
0.86048836 0.33180791 3.5819995 2.0097452e-38
0.85795021 0.32963827 3.5521133 1.7331935e-38
0.86149395 0.32819504 3.5569344 2.0005254e-38
0.85944259 0.32748795 3.5444429 2.0004898e-38
0.86978072 0.32938826 3.5627348 1.9913062e-38
0.87148654 0.32861632 3.5617411 1.9544637e-38
0.87218815 0.32864025 3.5574043 1.9728668e-38
0.87310547 0.32902664 3.5535839 1.972903e-38
0.88084328 0.32849175 3.5640409 1.9726873e-38
0.88238031 0.32895976 3.5621915 1.9821583e-38
0.88099515 0.32832116 3.5506058 2.0190364e-38
0.88486284 0.32882792 3.5561831 2.0466232e-38
0.88952923 0.32944643 3.5607529 2.0374393e-38
0.89455485 0.33042496 3.5680141 2.0558063e-38
0.90159065 0.33049494 3.5763724 2.0650257e-38
0.90050954 0.32953799 3.5668373 2.0189278e-38
0.90309358 0.33001158 3.568182 2.0466223e-38
0.90470064 0.33134183 3.5688221 2.0835003e-38
0.90084958 0.32985651 3.5515966 2.0742807e-38
0.90384394 0.32945919 3.5513785 1.9634319e-38
0.90927166 0.33109021 3.5617099 1.9634321e-38
0.90743273 0.32641315 3.5349963 2.0465146e-38
0.90652204 0.32593429 3.52408 2.0096013e-38
0.90924436 0.32609546 3.5232067 2.0004175e-38
0.9129163 0.32765669 3.5270808 1.9819782e-38
0.91466105 0.32789567 3.526159 1.9911978e-38
0.91621703 0.32817936 3.5258408 1.9727946e-38
0.92050093 0.32748687 3.5293727 2.0557707e-38
0.92124081 0.32744867 3.5237195 2.0004173e-38
0.92599058 0.32799727 3.528693 2.0465509e-38
0.9256978 0.32769054 3.5213823 2.0373317e-38
0.92747712 0.32814735 3.5203183 2.028112e-38
0.93310964 0.32808384 3.5255373 2.0280761e-38
0.93131542 0.32762542 3.5147493 2.0280038e-38
0.93892306 0.33066189 3.5381556 2.0097089e-38
0.94076794 0.3305628 3.5349274 2.0558066e-38
0.95083767 0.33116275 3.5401573 2.0556987e-38
0.95566255 0.32848859 3.5356867 2.0557348e-38
0.95717531 0.32847956 3.5343292 2.0280761e-38
0.95956516 0.32833743 3.5327091 2.0464793e-38
0.95914215 0.3281773 3.5272784 1.9356656e-38
0.96141976 0.32882121 3.5248313 2.0372956e-38
0.96790111 0.32918212 3.5281005 2.0371878e-38
0.96742237 0.32940683 3.5216033 2.0833574e-38
0.97097945 0.32899246 3.5208561 2.0558067e-38
0.97099775 0.32869601 3.5148878 2.0465151e-38
0.97159427 0.32876012 3.5119298 2.0373316e-38
0.9877063 0.3313539 3.5394154 2.0373676e-38
0.98344016 0.32885644 3.5271344 2.0557346e-38
0.99689764 0.33182862 3.5477231 2.1017247e-38
1.0012927 0.33059746 3.5389881 2.0373319e-38
1.0300457 0.32840985 3.5135002 1.8342508e-38
1.0286156 0.32804632 3.5026038 1.8342148e-38
1.0322455 0.32592425 3.5029514 2.0555189e-38
1.0514542 0.32986766 3.5022814 1.8896025e-38
1.1269851 0.33161253 3.5308921 8.3861421e-39
1.1333323 0.33104801 3.5356736 7.0950516e-39
1.1347966 0.33219776 3.5356772 6.5422421e-39
1.1381406 0.33130252 3.5373456 5.2525879e-39
0.7652666 0.33497214 3.614779 1.8242385e-38
0.76715672 0.33495861 3.6090817 1.8612241e-38
0.77050155 0.33443233 3.6020598 1.8428232e-38
0.77505976 0.33393273 3.6057565 1.9167567e-38
0.77534044 0.33374739 3.5974758 1.9904772e-38
0.775796 0.33326498 3.5928478 1.9997328e-38
0.77612013 0.33300477 3.5850186 2.018316e-38
0.7815187 0.33327761 3.5915747 2.0460104e-38
0.78414261 0.33525282 3.599515 2.0183878e-38
0.78959948 0.33264577 3.599438 2.018495e-38
0.79596597 0.33443707 3.613719 1.7878618e-38
0.79427636 0.33212325 3.5997972 1.7326527e-38
0.79647732 0.33264643 3.5880291 1.732689e-38
0.79447603 0.33341116 3.576365 1.9999131e-38
0.79841614 0.3331953 3.5865748 1.74198e-38
0.80037493 0.33333039 3.5820606 1.7511997e-38
0.80279648 0.33381072 3.5824089 1.7788945e-38
0.80318999 0.33305213 3.5768919 1.7511639e-38
0.80899954 0.33290741 3.584532 1.852545e-38
0.81710368 0.33294988 3.5901365 1.9080783e-38
0.81853098 0.33189383 3.5828004 1.8988575e-38
0.82317108 0.33231419 3.5887909 1.9633942e-38
0.8205198 0.332542 3.5766177 1.8802725e-38
0.82011902 0.33263174 3.56883 1.9170457e-38
0.83612335 0.3347927 3.5924015 1.8159532e-38
0.83930081 0.33438325 3.6016383 2.0004529e-38
0.84079134 0.33439651 3.6006963 1.8159892e-38
0.83861244 0.33396643 3.5900772 2.0188923e-38
0.8429898 0.33443195 3.5900736 1.9913054e-38
0.84109932 0.33286053 3.5741436 1.7329412e-38
0.84395969 0.33246034 3.569725 1.7237939e-38
0.84480637 0.33335856 3.566385 1.7698918e-38
0.8450495 0.33086661 3.5598602 1.742269e-38
0.85123783 0.33192092 3.571358 1.9820864e-38
0.84374028 0.32863542 3.5420654 1.7240099e-38
0.86409909 0.3345376 3.5962379 2.0465877e-38
0.86501503 0.33503714 3.5923262 2.0558432e-38
0.85751081 0.33207533 3.5505776 1.7424133e-38
0.85552382 0.33082005 3.5408223 1.6962795e-38
0.86296827 0.33006045 3.5526707 2.0005258e-38
0.86951905 0.33137682 3.5617774 2.018893e-38
0.86045378 0.32975256 3.5268056 1.7422328e-38
0.86468911 0.33043292 3.5281401 1.7330134e-38
0.86789507 0.33000392 3.536757 1.7514165e-38
0.87721419 0.33149871 3.5546527 2.0004895e-38
0.87277585 0.32946828 3.5319953 1.9080074e-38
0.87937385 0.33049506 3.5425529 2.0558425e-38
0.88543707 0.33345976 3.5605719 2.0649544e-38
0.88861531 0.33224121 3.5612502 2.0742097e-38
0.89440286 0.33297318 3.5683293 2.065062e-38
0.89943743 0.33286288 3.5715554 2.0650259e-38
0.90205616 0.33254495 3.5713327 2.0834288e-38
0.9040761 0.33285651 3.5701666 2.0280414e-38
0.90140843 0.33278346 3.5560598 2.0926839e-38
0.90154141 0.33164436 3.5461581 2.0835e-38
0.90607822 0.33059958 3.5489662 1.9818355e-38
0.90808415 0.3335585 3.5511806 1.9910194e-38
0.90659088 0.32775977 3.5215611 2.0280403e-38
0.90800279 0.32813141 3.5179763 1.9819782e-38
0.91290116 0.32988703 3.5249982 2.0004173e-38
0.91914469 0.32995051 3.5324991 2.0926491e-38
0.92069268 0.33018571 3.5329528 2.0834297e-38
0.92367572 0.32995519 3.5336442 2.0465151e-38
0.92473745 0.32972383 3.5274494 2.0465867e-38
0.92390329 0.32999134 3.5207076 2.0373312e-38
0.92690974 0.33046904 3.5227427 2.009601e-38
0.93141997 0.3310146 3.5287814 2.028112e-38
0.9363125 0.3307119 3.5327091 2.009673e-38
0.93740213 0.33336735 3.5346298 2.0465867e-38
0.93909419 0.33359933 3.5312815 2.0003817e-38
0.95393384 0.33362058 3.5504563 2.0096011e-38
0.95211571 0.33250976 3.5348129 2.064918e-38
0.95505577 0.32993793 3.5278397 2.0372956e-38
