# .PCD v0.7 - Point Cloud Data file format
VERSION 0.7
FIELDS x y z rgb
SIZE 4 4 4 4
TYPE F F F F
COUNT 1 1 1 1
WIDTH 1050
HEIGHT 1
VIEWPOINT 0 0 0 1 0 0 0
POINTS 1050
DATA ascii
0.42401728 0.46749765 3.6454847 2.0925014e-38
0.42882383 0.46928155 3.6572075 2.0925371e-38
0.43004632 0.46956372 3.6518893 2.1201231e-38
0.43494642 0.4702996 3.6615939 2.1016829e-38
0.2778371 0.46716025 3.6200566 2.2307562e-38
0.2795752 0.46627012 3.6163948 2.2491961e-38
0.2815294 0.4637861 3.5936937 2.2953325e-38
0.2844817 0.46411979 3.5979176 2.3045525e-38
0.28826705 0.46549693 3.6024435 2.0832086e-38
0.29049289 0.4659743 3.6025565 2.1108315e-38
0.31942102 0.46517512 3.5956285 2.1570075e-38
0.32364216 0.46516719 3.6003444 2.1569715e-38
0.32540762 0.46545109 3.5980971 2.1570074e-38
0.32613212 0.4640182 3.5887046 2.1662625e-38
0.34738532 0.47197416 3.665247 2.3047009e-38
0.35158414 0.47208479 3.6712856 2.295517e-38
0.35254955 0.4716638 3.6621397 2.3047365e-38
0.3527787 0.46792498 3.6351585 2.2955522e-38
0.35360217 0.46948844 3.6316392 2.2216526e-38
0.35813397 0.46958303 3.6447132 2.2955884e-38
0.36026281 0.4675675 3.6292932 2.2217607e-38
0.36356166 0.46667144 3.6277752 2.1386033e-38
0.3644616 0.46211991 3.5993114 2.1292758e-38
0.36940667 0.46573791 3.6134737 2.1202e-38
0.36645234 0.46047312 3.5833511 2.0832132e-38
0.37369937 0.46227378 3.5885386 2.1847001e-38
0.38110664 0.46469989 3.6032138 2.1570397e-38
0.39933631 0.47249311 3.6699071 2.2493461e-38
0.40132824 0.4721283 3.6652374 2.203284e-38
0.40079325 0.47050083 3.6480327 2.1294553e-38
0.39555141 0.46585274 3.5967269 2.1294894e-38
0.39725849 0.46568605 3.5927477 2.1294531e-38
0.4000307 0.46583265 3.5948777 2.1293453e-38
0.40155849 0.46598789 3.5903203 1.9539952e-38
0.40343064 0.46491566 3.5876284 1.9723977e-38
0.4240194 0.4712671 3.6391549 2.110904e-38
0.42593768 0.47085708 3.6359923 2.0555146e-38
0.42860907 0.4698146 3.6366248 2.0738809e-38
0.27898139 0.46873015 3.6101906 2.2676358e-38
0.28128716 0.46828142 3.6094666 2.2768202e-38
0.28225499 0.46769938 3.600039 2.221612e-38
0.28487092 0.46770719 3.5997429 2.2400157e-38
0.28687429 0.46827105 3.5981736 2.2308325e-38
0.28619576 0.46506867 3.5717437 2.1108353e-38
0.30834004 0.47552714 3.6685336 2.2769323e-38
0.31198967 0.47479472 3.6671584 2.2677851e-38
0.320898 0.46852627 3.6019027 2.1200916e-38
0.32322392 0.46805647 3.5995944 2.1662272e-38
0.32508674 0.46791986 3.5967803 2.1662627e-38
0.32749885 0.46819589 3.5972955 2.1570431e-38
0.34545806 0.47385561 3.6629586 2.3047367e-38
0.34771004 0.47378257 3.6635244 2.3139204e-38
0.35206747 0.47383839 3.6657248 2.295517e-38
0.35014895 0.47064897 3.6423583 2.2955168e-38
0.35400367 0.47200838 3.6466892 2.2863331e-38
0.36076012 0.47225827 3.6428008 2.2678575e-38
0.3646062 0.46912199 3.627836 2.1293839e-38
0.36628976 0.46898848 3.6242042 2.147787e-38
0.37120771 0.46914452 3.6218657 2.1017249e-38
0.36921635 0.4648909 3.5891616 2.1292723e-38
0.38263419 0.47122887 3.6306689 2.092469e-38
0.38759789 0.47274235 3.6395793 2.1016886e-38
0.38690409 0.47117051 3.6295619 2.1016526e-38
0.3896749 0.47048175 3.628196 2.073994e-38
0.40322432 0.47476622 3.6724429 2.2216512e-38
0.40457383 0.47442874 3.6666701 2.2399825e-38
0.39651963 0.46914321 3.6079848 2.1478931e-38
0.39758083 0.4694539 3.6032741 2.0926473e-38
0.39972967 0.46860915 3.5939593 2.1201619e-38
0.40238169 0.46860656 3.594558 2.1109781e-38
0.4048585 0.46866798 3.5958669 2.0740993e-38
0.42476663 0.47111678 3.633404 2.1201584e-38
0.42612424 0.47468626 3.6374261 2.0371121e-38
0.4284659 0.47312835 3.6350255 2.0924633e-38
0.27540487 0.46953785 3.6073477 2.2491957e-38
0.27943021 0.47019964 3.6090636 2.2676364e-38
0.28149214 0.47094059 3.6089063 2.2768566e-38
0.27972314 0.46767348 3.5913451 2.2215761e-38
0.28527462 0.47111341 3.6026342 2.2216127e-38
0.28634298 0.47073361 3.5957215 2.2861864e-38
0.3083888 0.4782331 3.6719069 2.2861516e-38
0.31175637 0.47765476 3.6663013 2.2770408e-38
0.31980598 0.47629422 3.6501753 2.2863329e-38
0.32167122 0.47510713 3.6470308 2.2862612e-38
0.32247695 0.47069302 3.6082807 2.1201635e-38
0.32517958 0.47161493 3.615339 2.129347e-38
0.32678556 0.47137734 3.6089849 2.1201993e-38
0.33178741 0.47513723 3.6373243 2.3047007e-38
0.32899421 0.47246644 3.5942883 2.193918e-38
0.33139548 0.47228065 3.5930576 2.2031734e-38
0.34008074 0.46815237 3.5807004 2.1386038e-38
0.34572917 0.46864164 3.5858243 2.1293841e-38
0.35371 0.47348231 3.6247499 2.2217966e-38
0.35709301 0.47369653 3.6298246 2.2217247e-38
0.36147749 0.47583106 3.6375246 2.2216888e-38
0.3634347 0.4728649 3.6211078 2.1201643e-38
0.36633873 0.46735406 3.596277 2.1477477e-38
0.36886856 0.46679863 3.5913937 2.120053e-38
0.3750256 0.4720237 3.608546 2.1569676e-38
0.38328665 0.47517642 3.6430964 2.1756259e-38
0.38587862 0.47507516 3.6405377 2.2494178e-38
0.38909751 0.47551814 3.6442053 2.2217953e-38
0.39007634 0.47505611 3.6373205 2.1016167e-38
0.40318459 0.47720304 3.6578612 1.9633573e-38
0.40323865 0.47501072 3.6447792 2.1755889e-38
0.40437466 0.47543296 3.6379266 2.1663329e-38
0.4004066 0.47391316 3.6079376 2.0924685e-38
0.40336034 0.47417408 3.6087234 2.0000935e-38
0.40396294 0.470698 3.5925055 2.1017222e-38
0.42510569 0.4736684 3.6338363 2.0648772e-38
0.42669952 0.47601074 3.635494 2.0924643e-38
0.43100834 0.47648934 3.637552 2.0555493e-38
0.2745299 0.47432604 3.6130755 2.2307206e-38
0.27536431 0.47266379 3.6071026 2.2215736e-38
0.27664393 0.47178417 3.6029456 2.2492329e-38
0.28072327 0.47356394 3.6049945 2.2677094e-38
0.27978846 0.4708986 3.5933921 2.221648e-38
0.28519955 0.47374937 3.6002586 2.2861499e-38
0.28875768 0.47430125 3.6053021 2.2953342e-38
0.3067227 0.47191268 3.5819733 2.129456e-38
0.30959848 0.47253305 3.5848949 2.1293847e-38
0.31270039 0.47096848 3.5806203 2.1477881e-38
0.32385007 0.47533193 3.6067536 2.1385666e-38
0.32879853 0.47653052 3.6291358 2.2401998e-38
0.34111926 0.47976652 3.6635418 2.2494554e-38
0.33886847 0.47047842 3.585587 2.147788e-38
0.33884317 0.47025472 3.574657 2.1293846e-38
0.35037404 0.47572094 3.6118562 2.2310158e-38
0.35702798 0.47662619 3.6288393 2.2401998e-38
0.36121306 0.47814605 3.6344507 2.2217248e-38
0.3627896 0.47636709 3.6198611 2.1294199e-38
0.37831956 0.4770208 3.601583 2.1661888e-38
0.37740624 0.47378251 3.5866473 2.1477856e-38
0.38588127 0.47952002 3.651104 2.2493105e-38
0.38804466 0.47995257 3.6501496 2.2493103e-38
0.38925326 0.47898638 3.6412833 2.1755538e-38
0.40325555 0.4813295 3.6778531 2.2216871e-38
0.40323716 0.48018843 3.657686 1.972613e-38
0.40206218 0.47929513 3.6429806 2.2031757e-38
0.40204364 0.4787021 3.633822 2.1571495e-38
0.40623072 0.47894922 3.6371651 2.1571129e-38
0.407511 0.47839776 3.6322305 2.0832491e-38
0.41340226 0.4797053 3.6350842 2.0279673e-38
0.42530087 0.48142251 3.6670647 2.0462981e-38
0.42461741 0.47925764 3.6389861 2.0924299e-38
0.42662001 0.47813436 3.634732 2.1016125e-38
0.42942458 0.47843906 3.6325691 1.9909416e-38
0.26720425 0.47438231 3.6013467 2.2307195e-38
0.27044272 0.47261602 3.5929859 2.1661113e-38
0.27432355 0.4734979 3.5974538 2.2400132e-38
0.2759338 0.47378796 3.5964024 2.2584531e-38
0.28022191 0.47543713 3.6022401 2.2676739e-38
0.27929989 0.47284916 3.5884032 2.2216482e-38
0.28002179 0.47104442 3.5775738 2.2861499e-38
0.28457788 0.47347265 3.5882468 2.2953702e-38
0.30150157 0.48019806 3.651912 2.1293467e-38
0.3090795 0.48007014 3.6368628 2.2863327e-38
0.30613425 0.47515473 3.5832191 2.13864e-38
0.3090789 0.47515753 3.582129 2.1294209e-38
0.30994177 0.47122046 3.5647385 2.1570077e-38
0.33101216 0.47954383 3.6374621 2.2309804e-38
0.33304873 0.4807474 3.6411779 2.2401998e-38
0.33872193 0.47266716 3.5818067 2.1570435e-38
0.3515563 0.47855395 3.6158922 2.147788e-38
0.35910639 0.47863808 3.6308126 2.2309801e-38
0.3620888 0.47998202 3.6345098 2.2216885e-38
0.36409044 0.47910509 3.6266716 2.221724e-38
0.36813614 0.4801833 3.6423187 2.2217238e-38
0.36840189 0.48137236 3.6447625 2.2862608e-38
0.38604227 0.48201978 3.6495121 2.2032848e-38
0.38661629 0.48150155 3.6401365 2.2309434e-38
0.38793749 0.48018628 3.6352916 2.1663344e-38
0.40191731 0.48235503 3.6423438 2.1939923e-38
0.40491447 0.4827598 3.6479659 2.1755529e-38
0.40507081 0.48207837 3.6380806 2.1387101e-38
0.4056482 0.48138806 3.6259809 2.1386378e-38
0.42336422 0.48101789 3.634238 2.0647714e-38
0.42450264 0.48114526 3.6279182 1.9726479e-38
0.42825469 0.48167148 3.6312757 1.9726114e-38
0.43341783 0.48188338 3.6366956 1.8709086e-38
0.43455595 0.48234314 3.6370325 2.0554777e-38
0.26461732 0.47642738 3.5910289 2.2307195e-38
0.26568639 0.47628149 3.5860028 2.1569278e-38
0.26971555 0.47563243 3.5885839 2.1754035e-38
0.27461687 0.47588351 3.5961268 2.2584168e-38
0.30067471 0.48224977 3.6472704 2.1201274e-38
0.30960786 0.48405239 3.6435103 2.2863328e-38
0.30789894 0.47868893 3.5928588 2.1478596e-38
0.31022036 0.47765371 3.5882578 2.1294569e-38
0.31300896 0.47816184 3.5902681 2.1386404e-38
0.32268429 0.47981673 3.6072528 2.2031018e-38
0.32522371 0.48157361 3.608752 2.2123574e-38
0.33331621 0.48259133 3.6388829 2.2401998e-38
0.33676982 0.48240733 3.63937 2.2494192e-38
0.3388176 0.47624871 3.5958667 2.2401995e-38
0.35951191 0.48088557 3.6322548 2.2125407e-38
0.36269748 0.48592958 3.6453753 2.1478235e-38
0.36523208 0.48241639 3.631295 2.2677859e-38
0.36919299 0.48561507 3.6448691 2.2585665e-38
0.37911966 0.4755387 3.5742095 2.073994e-38
0.38100484 0.47656658 3.5763936 2.0555909e-38
0.3859973 0.47752073 3.583163 2.0829982e-38
0.38808855 0.47567177 3.5777638 2.055411e-38
0.39516371 0.47717959 3.594723 2.1478575e-38
0.40174216 0.48452237 3.6410873 2.1939563e-38
0.40773094 0.4869594 3.6618412 2.1939561e-38
0.40624756 0.48472893 3.6388423 2.1570772e-38
0.40878817 0.48439729 3.6375332 2.1662604e-38
0.41388631 0.48536175 3.6506557 2.1662601e-38
0.41620034 0.48540178 3.6464581 2.166188e-38
0.41662991 0.48564234 3.6398427 2.1386371e-38
0.42048404 0.48225227 3.6214254 1.9171166e-38
0.42361695 0.48276451 3.6234996 1.9634285e-38
0.42780441 0.48373255 3.6294496 1.9358054e-38
0.43143639 0.48445192 3.6340289 1.8802009e-38
0.26769221 0.47816798 3.5844247 2.0552989e-38
0.26960549 0.47768199 3.5803308 2.082994e-38
0.27235296 0.47719064 3.5664375 2.129272e-38
0.28643864 0.48858631 3.6665924 2.2306495e-38
0.29910204 0.48581472 3.6414366 2.1385666e-38
0.30558756 0.48665792 3.6480258 2.286189e-38
0.30810276 0.48640117 3.6449625 2.2678582e-38
0.31082377 0.4862985 3.6442885 2.2862613e-38
0.31191996 0.48528838 3.6342952 2.2955168e-38
0.30934569 0.48019248 3.5879123 2.1387123e-38
0.3136116 0.48031893 3.5914178 2.147896e-38
0.31539649 0.4801513 3.5852818 2.1570437e-38
0.32564238 0.48247743 3.6035776 2.1938824e-38
0.33072597 0.48444653 3.6237652 2.1571156e-38
0.3317866 0.4836472 3.6149254 2.1017605e-38
0.33363062 0.48380077 3.6126752 2.184699e-38
0.34402213 0.48104361 3.6065469 2.2586028e-38
0.34633833 0.48279688 3.6090336 2.2125768e-38
0.34426445 0.47959819 3.5773027 2.147788e-38
0.35068431 0.48236528 3.6070712 2.2217604e-38
0.35970122 0.48707446 3.6318128 2.2217604e-38
0.36279792 0.48676923 3.6340389 2.231016e-38
0.36551368 0.48584634 3.6303377 2.2493472e-38
0.36802098 0.48632148 3.6357856 2.2493469e-38
0.37249988 0.48075762 3.5804379 2.0924672e-38
0.37635112 0.48219299 3.5874431 2.0924672e-38
0.37638938 0.47790176 3.5726657 2.0647745e-38
0.38115838 0.47949246 3.5776846 2.0647743e-38
0.38619444 0.48033488 3.5821435 2.046084e-38
0.38831809 0.47854078 3.5802169 2.0461198e-38
0.39542702 0.48020449 3.5972755 2.0093856e-38
0.39636534 0.47858047 3.5883458 1.9909103e-38
0.40071011 0.47969326 3.590528 2.120126e-38
0.40498054 0.48002017 3.5946584 2.0556248e-38
0.40960923 0.48047492 3.6029749 1.9263367e-38
0.41297439 0.48722115 3.6357927 2.1478931e-38
0.41793594 0.48790276 3.6470282 2.1478929e-38
0.42045036 0.48495051 3.6217611 1.8894942e-38
0.42348677 0.48568887 3.6244226 1.8986417e-38
0.42874849 0.48690405 3.6328273 1.917116e-38
0.43227684 0.48668253 3.6350379 1.8709456e-38
0.4362686 0.48812848 3.6400437 1.8432866e-38
0.43820956 0.48696825 3.6390445 1.9265491e-38
0.2657612 0.48085669 3.586935 2.1477444e-38
0.26861751 0.48059592 3.5866215 2.1661843e-38
0.26899421 0.48006585 3.5750985 2.1939158e-38
0.27516994 0.47915897 3.571301 2.2400157e-38
0.27800438 0.47859368 3.5723672 2.2216133e-38
0.29637948 0.48798221 3.6412752 2.1200909e-38
0.29899114 0.48807058 3.6401873 2.2862242e-38
0.30179238 0.48772565 3.6391969 2.2954442e-38
0.30530506 0.48696312 3.6416543 2.1477511e-38
0.30832464 0.48810866 3.6449871 2.2678582e-38
0.31115481 0.48950222 3.6483502 2.2678585e-38
0.31320578 0.48906547 3.6398616 2.2955172e-38
0.31129813 0.4840728 3.5990646 2.1386764e-38
0.31544659 0.48532665 3.6049871 2.147896e-38
0.32057169 0.48481333 3.6018102 2.1386763e-38
0.32325843 0.48513487 3.6031179 2.14786e-38
0.3390069 0.48527202 3.6059361 2.2401636e-38
0.34371173 0.48521423 3.6083848 2.2401638e-38
0.34449914 0.4829281 3.5799255 2.1385685e-38
0.34614074 0.48216081 3.5761805 2.1293844e-38
0.35841486 0.49046826 3.6375389 2.1293485e-38
0.36063635 0.49045736 3.6361437 2.1201649e-38
0.36370859 0.48871496 3.635138 2.2216884e-38
0.36454225 0.48759675 3.6271274 2.2585306e-38
0.36828214 0.48875588 3.6352763 2.2585666e-38
0.38020018 0.48043481 3.5717087 2.0647385e-38
0.38293341 0.4835355 3.5821886 2.1015429e-38
0.38412628 0.4831489 3.5761347 2.055445e-38
0.3882066 0.48150799 3.5809469 2.0184973e-38
0.39337113 0.48231336 3.591047 1.981763e-38
0.39627516 0.48153573 3.5887511 1.9908745e-38
0.40096253 0.48224014 3.5942509 1.9539602e-38
0.40234339 0.48183388 3.5853107 2.0000182e-38
0.41609129 0.49186888 3.6504233 2.1202349e-38
0.41552985 0.49084502 3.6371448 2.1201985e-38
0.42011353 0.49012768 3.6407614 2.1201262e-38
0.42005202 0.4887777 3.6208789 1.9078613e-38
0.42255276 0.48890391 3.6208937 1.9263003e-38
0.42819408 0.4903546 3.6311424 1.926336e-38
0.4317562 0.48925024 3.6328125 2.0463321e-38
0.43510014 0.49036491 3.6364055 1.9541015e-38
0.43795741 0.48975968 3.6391339 2.0462947e-38
0.26598108 0.48420605 3.5905292 2.166112e-38
0.26876724 0.48434123 3.591176 2.1846598e-38
0.27018291 0.48318785 3.5870266 2.2491611e-38
0.2738575 0.48447412 3.5946012 2.2584535e-38
0.27474943 0.48364502 3.5841248 2.258491e-38
0.27445042 0.48117554 3.551919 2.1291622e-38
0.2762799 0.47998062 3.5489907 2.1568211e-38
0.28948131 0.49156392 3.6385651 2.092359e-38
0.29363829 0.49068928 3.6405501 2.1200543e-38
0.29716849 0.49086034 3.6395838 2.2308341e-38
0.30028588 0.4907316 3.6374326 2.1939925e-38
0.30148146 0.48951033 3.6360481 2.203212e-38
0.30495799 0.49049184 3.6401174 2.1848094e-38
0.30724978 0.48971939 3.63537 2.2770779e-38
0.30905408 0.49162975 3.6389694 2.2862976e-38
0.31252462 0.48913348 3.6361217 2.2863336e-38
0.31736931 0.491631 3.6475115 2.2955172e-38
0.31744638 0.4918403 3.6397583 2.2955172e-38
0.32347599 0.49303892 3.6518571 2.3047367e-38
0.32593969 0.49212322 3.6478293 2.313956e-38
0.32910201 0.49068406 3.6470912 2.313956e-38
0.34324908 0.48753309 3.6064656 2.2217968e-38
0.35911965 0.49198586 3.6381752 2.2125768e-38
0.3613748 0.49131563 3.6366184 2.1941376e-38
0.36468676 0.49039781 3.6396115 2.2032851e-38
0.36734599 0.49181199 3.6436822 2.2124687e-38
0.36868107 0.49164164 3.6395304 2.2032488e-38
0.39720118 0.48648223 3.6102588 2.0002021e-38
0.39869356 0.48654059 3.6067426 1.9817269e-38
0.39723888 0.48526797 3.5937696 1.9725074e-38
0.39966831 0.48433596 3.5933247 1.9724352e-38
0.40721479 0.48633271 3.6045749 2.1477852e-38
0.41006216 0.48636687 3.6048939 2.1017226e-38
0.41587743 0.49342415 3.648191 2.1386742e-38
0.41579604 0.49355045 3.6397982 2.1109792e-38
0.42258424 0.49502343 3.6571016 2.0924683e-38
0.42075366 0.49098787 3.6234796 2.0832115e-38
0.42337134 0.49155262 3.6238596 2.0832115e-38
0.426258 0.491218 3.6235971 2.0740274e-38
0.43011075 0.49082121 3.6252978 2.0555517e-38
0.43439236 0.49182341 3.6337445 2.04626e-38
0.43728375 0.49128672 3.6348078 2.0370035e-38
0.43912137 0.49102974 3.6333797 2.0093802e-38
0.26556441 0.48694295 3.5882244 2.2399396e-38
0.26731792 0.48685956 3.586767 2.1661848e-38
0.27095139 0.48927587 3.6038356 2.2491963e-38
0.27387816 0.48923483 3.6035683 2.2768208e-38
0.27900505 0.48996812 3.6115298 2.2677102e-38
0.28080842 0.48748246 3.6067901 2.1107229e-38
0.29400009 0.49424464 3.6427855 2.2308337e-38
0.29778808 0.49564046 3.6478817 2.2400536e-38
0.29995057 0.49318147 3.6376822 2.2125033e-38
0.30218047 0.49382639 3.6355093 2.2309067e-38
0.30522275 0.49322537 3.6352952 2.21254e-38
0.30845389 0.49335012 3.6368465 2.2863332e-38
0.30939251 0.49340549 3.6327736 2.2771136e-38
0.3141903 0.49583077 3.6521556 2.2771494e-38
0.31464335 0.49539515 3.6454978 2.2863331e-38
0.32003391 0.49617308 3.6528347 2.2863692e-38
0.32982466 0.49409589 3.6509681 2.3048082e-38
0.33207369 0.49339765 3.6487951 2.2956245e-38
0.33510709 0.49287555 3.6469216 2.2864052e-38
0.33742052 0.49318159 3.6479023 2.2863336e-38
0.34004387 0.49422061 3.643373 2.3047009e-38
0.34268016 0.49481064 3.6438341 2.2862976e-38
0.3456938 0.49399558 3.6415455 2.2955168e-38
0.35416448 0.49289158 3.6253695 2.1293488e-38
0.35921508 0.49340492 3.6423807 2.2678582e-38
0.35946482 0.49312037 3.6305852 2.2033571e-38
0.36394754 0.49392077 3.6381779 2.2125047e-38
0.36613607 0.49382433 3.6373124 2.2124687e-38
0.37213382 0.49773735 3.6578841 2.1940295e-38
0.39091942 0.48860371 3.6030087 2.0370798e-38
0.39290243 0.48862016 3.6016717 2.0370439e-38
0.39608273 0.48881882 3.605597 2.0094215e-38
0.39901537 0.48997852 3.6060877 2.1755524e-38
0.39894563 0.48844507 3.5969667 2.1110152e-38
0.39902884 0.48711604 3.5849838 2.046443e-38
0.40150362 0.48637915 3.584228 2.0276769e-38
0.41776195 0.49563929 3.6456087 2.0925406e-38
0.42154169 0.49542099 3.6482129 2.1109073e-38
0.42131454 0.49425757 3.6237173 1.9910533e-38
0.4227154 0.49342564 3.6184549 2.0371498e-38
0.42764705 0.4948087 3.6270335 2.0370777e-38
0.43100941 0.49486586 3.629982 2.0647003e-38
0.43285382 0.49275807 3.6261768 2.027893e-38
0.43897977 0.49598095 3.6413436 2.0370408e-38
0.43995634 0.49465305 3.6362081 2.0186727e-38
0.4427121 0.49491647 3.6379473 2.0094165e-38
0.26469687 0.4892396 3.5866334 2.2307196e-38
0.27169847 0.49172205 3.6033549 2.2676001e-38
0.27331766 0.49152625 3.6000092 2.2768209e-38
0.27499372 0.49171218 3.5994575 2.2676739e-38
0.27791598 0.49208143 3.5964146 2.2493081e-38
0.28737357 0.49652883 3.6268542 2.1199101e-38
0.29197451 0.49742663 3.6373773 2.1199467e-38
0.29440948 0.49781069 3.6373279 2.1200195e-38
0.29725671 0.49727577 3.6393716 2.2400899e-38
0.29796273 0.49640107 3.631736 2.2400904e-38
0.30064073 0.49660069 3.6334624 2.2216874e-38
0.30444932 0.49712369 3.636929 2.2216878e-38
0.30774552 0.49589401 3.6337104 2.2863688e-38
0.31815743 0.49938226 3.658787 2.2863331e-38
0.33180869 0.4953768 3.646939 2.2955886e-38
0.33652812 0.4973096 3.6551349 2.2955886e-38
0.34117165 0.50095332 3.6678681 2.2862615e-38
0.3401913 0.49728855 3.6438565 2.2771141e-38
0.34263116 0.49723595 3.6436596 2.2862975e-38
0.34854445 0.49675757 3.643815 2.2678579e-38
0.35066772 0.49679795 3.6394455 2.2309802e-38
0.35277498 0.496797 3.6381536 2.2032857e-38
0.35528818 0.49599257 3.6354427 2.1940663e-38
0.35980895 0.49660352 3.642175 2.2586385e-38
0.36186928 0.49687791 3.6430113 2.267786e-38
0.3642633 0.49657473 3.6415973 2.2585305e-38
0.36732188 0.49621776 3.6415555 2.1940295e-38
0.37040314 0.49752295 3.6460383 2.2401629e-38
0.37298894 0.49716136 3.647543 2.2309435e-38
0.38925472 0.49043852 3.586504 2.0370795e-38
0.39605647 0.49205092 3.6041586 2.1847364e-38
0.39847052 0.49216399 3.6054475 2.1570777e-38
0.40044025 0.49489751 3.6087179 2.1662974e-38
0.40131664 0.49298212 3.5999329 2.129383e-38
0.39974734 0.48874268 3.5791287 2.0003453e-38
0.40145823 0.48742169 3.5757105 2.0184572e-38
0.4196769 0.4983272 3.6506815 2.1109439e-38
0.42154488 0.498171 3.6527448 2.0924689e-38
0.42094374 0.49656183 3.6219621 1.981798e-38
0.42451224 0.4970293 3.6311982 1.9633947e-38
0.42870912 0.49775115 3.6345038 2.0462977e-38
0.43047819 0.49770159 3.631264 2.0555171e-38
0.43023914 0.49519858 3.6184742 2.0462967e-38
0.43405876 0.49771348 3.6271439 2.0278578e-38
0.43857476 0.4970063 3.633131 2.0370764e-38
0.44342706 0.49882647 3.6427593 2.0186732e-38
0.27150095 0.49500424 3.6047578 2.2398322e-38
0.27421087 0.49493381 3.6040404 2.2491251e-38
0.27414054 0.49493733 3.5939345 2.2583814e-38
0.27814871 0.49451497 3.5987136 2.2676386e-38
0.28584358 0.49676672 3.6173091 2.212358e-38
0.29682377 0.49759415 3.6296911 2.2400902e-38
0.31581208 0.50024706 3.6578374 2.2679297e-38
0.31899396 0.49990588 3.6570451 2.2771138e-38
0.32051337 0.49913493 3.6495361 2.2863692e-38
0.32207882 0.49980971 3.6476665 2.3047366e-38
0.32587865 0.50046176 3.6496196 2.2862973e-38
0.32817793 0.49978882 3.6446161 2.2771136e-38
0.33839267 0.5029524 3.6652226 2.2770779e-38
0.34148633 0.50360942 3.6670635 2.22158e-38
0.34533358 0.50493169 3.6743407 2.2862973e-38
0.34835875 0.49912632 3.6313446 2.1386044e-38
0.35071746 0.49832544 3.6297624 2.2033574e-38
0.35283294 0.50000715 3.6331639 2.2309085e-38
0.35606968 0.49963281 3.6337535 2.194102e-38
0.36198235 0.49995568 3.6467555 2.2586025e-38
0.36396015 0.49917483 3.6399281 2.2585663e-38
0.36732543 0.49927232 3.6408255 2.2032132e-38
0.36843631 0.5007599 3.6398494 2.2400908e-38
0.37001681 0.49993855 3.6354172 2.2401268e-38
0.37672511 0.50264668 3.6622646 2.230943e-38
0.39438233 0.49331009 3.5918698 2.157078e-38
0.40103805 0.49449965 3.5997415 1.9817621e-38
0.39952433 0.4928804 3.586364 2.037224e-38
0.39884129 0.48944446 3.5698488 2.0095649e-38
0.4287079 0.50275457 3.650718 2.0463705e-38
0.42928162 0.5018242 3.6445594 2.009492e-38
0.43047556 0.50055438 3.6358664 2.0554815e-38
0.43206349 0.49950397 3.6268086 2.0186027e-38
0.43311983 0.4994702 3.6245837 2.027822e-38
0.44029123 0.50084913 3.6388395 2.0185655e-38
0.44399053 0.50163633 3.6432605 1.9909785e-38
0.27250436 0.49780211 3.609247 2.203025e-38
0.27485844 0.49756071 3.6055048 2.2398694e-38
0.27557236 0.49742141 3.5988007 2.2399061e-38
0.27873281 0.49778348 3.6043403 2.2400148e-38
0.28323343 0.50060463 3.6236229 2.1661864e-38
0.2862598 0.50104469 3.6246095 2.15704e-38
0.29142112 0.49952069 3.6210625 2.1292031e-38
0.29539636 0.49964502 3.6222494 2.1292401e-38
0.31998435 0.50175148 3.6468985 2.2401635e-38
0.32247835 0.50300425 3.6477017 2.2309802e-38
0.32533795 0.50279158 3.6462545 2.2309442e-38
0.32718769 0.50265974 3.6441202 2.2770778e-38
0.329649 0.50225037 3.6413426 2.2862616e-38
0.33633369 0.50405675 3.6570845 2.2770422e-38
0.34411362 0.50651699 3.6671755 2.1939577e-38
0.34350428 0.50337243 3.6519628 2.2862972e-38
0.34807891 0.5018369 3.630233 2.1016901e-38
0.35045218 0.50142717 3.628386 2.2400565e-38
0.35265326 0.5016579 3.6298182 2.1109097e-38
0.35612348 0.50198632 3.6341054 2.2032142e-38
0.36256361 0.50470948 3.6468987 2.1939942e-38
0.36440179 0.50217366 3.6411347 2.2677499e-38
0.36747169 0.50334573 3.6418257 2.2401268e-38
0.36839989 0.50362992 3.6393561 2.2308712e-38
0.36942106 0.50304461 3.6342642 2.2309072e-38
0.37548283 0.50576615 3.6574507 2.2217234e-38
0.37814844 0.50567174 3.6583271 2.2400545e-38
0.38139734 0.50472152 3.6521003 2.2308705e-38
0.38349217 0.50327498 3.6428795 2.221651e-38
0.38646322 0.50310928 3.6436577 2.2032121e-38
0.38558006 0.50248611 3.6281338 2.1478228e-38
0.38861692 0.50244844 3.6274111 2.1294197e-38
0.39262125 0.50334138 3.635174 2.1109806e-38
0.39342475 0.50271624 3.6271493 2.1202359e-38
0.39843088 0.50281918 3.6352241 2.1109447e-38
0.40246341 0.50307709 3.6422553 2.1017609e-38
0.40635884 0.50351322 3.6480541 2.1755174e-38
0.40217692 0.49841931 3.5968494 2.0280754e-38
0.40528795 0.49679384 3.5930789 2.0187484e-38
0.40777022 0.49676687 3.5949545 2.0187843e-38
0.41917202 0.49803704 3.603718 1.8801664e-38
0.42820042 0.50517666 3.6530676 2.0647736e-38
0.42855185 0.50600177 3.6491897 2.0279313e-38
0.43223101 0.5048396 3.6460464 2.0277871e-38
0.43368593 0.50328135 3.6411903 2.0186394e-38
0.43500632 0.50211531 3.632674 1.9171876e-38
0.43843713 0.50173765 3.6354203 2.0093825e-38
0.44275671 0.50345021 3.641376 1.9633559e-38
0.27475241 0.50029337 3.6068311 2.2397964e-38
0.27929425 0.50180495 3.6143935 2.2306857e-38
0.28398904 0.50402278 3.6207118 2.0830313e-38
0.28299707 0.50144422 3.617739 2.2583818e-38
0.2868169 0.50060529 3.6197307 2.1662962e-38
0.28915322 0.50247896 3.62199 2.1939914e-38
0.29289386 0.502828 3.6233909 2.2216152e-38
0.29545659 0.50246626 3.6232531 2.083142e-38
0.29671019 0.5045377 3.6279769 2.0923971e-38
0.3197338 0.50494421 3.6456432 2.2309084e-38
0.32279292 0.50596237 3.649797 2.2401278e-38
0.32591891 0.50593877 3.6497328 2.2493115e-38
0.32603058 0.5053125 3.6390679 2.2309084e-38
0.32997593 0.50623143 3.642576 2.2770063e-38
0.34775779 0.50406832 3.6292014 2.1108737e-38
0.34948558 0.50411814 3.6273642 2.2123979e-38
0.35372582 0.50393045 3.6301906 2.2494548e-38
0.35649258 0.50393593 3.630295 2.2494189e-38
0.35851488 0.50392711 3.6274569 2.1848107e-38
0.36428592 0.50444984 3.6384552 2.2309434e-38
0.36848119 0.50651371 3.6444607 2.2493105e-38
0.37137598 0.50728464 3.6524456 2.2401268e-38
0.37049121 0.50623411 3.6370382 2.147859e-38
0.37566409 0.50809795 3.652977 2.2216514e-38
0.37751701 0.50859499 3.650207 2.2124674e-38
0.38216794 0.5072161 3.6548958 2.240126e-38
0.38462102 0.50723594 3.6548951 2.2308348e-38
0.38518372 0.50606543 3.6400957 2.2215793e-38
0.3865003 0.50489569 3.6299584 2.1386034e-38
0.38811645 0.50396657 3.6230071 2.129348e-38
0.39137056 0.50475264 3.6262686 2.1016892e-38
0.39325845 0.5050016 3.6269248 2.1017609e-38
0.39698666 0.50502002 3.6328015 2.0925774e-38
0.40097955 0.50626099 3.6405489 2.0925055e-38
0.40513575 0.50620538 3.6454735 2.1570784e-38
0.40134436 0.49889407 3.5901499 2.0280396e-38
0.40561393 0.49899256 3.5940299 2.0280397e-38
0.40646178 0.5004127 3.5948215 2.0372593e-38
0.40729621 0.49973592 3.5875952 1.9818703e-38
0.42699605 0.50750262 3.6498401 2.0555904e-38
0.42935961 0.50726491 3.6473882 2.0187115e-38
0.43146074 0.50664163 3.6452889 2.0186035e-38
0.43243399 0.50610214 3.6406596 2.0001641e-38
0.43541434 0.50613993 3.6386209 2.0001997e-38
0.43833199 0.50498241 3.6393609 1.926407e-38
0.44312221 0.50538427 3.6421916 1.9724677e-38
0.44838497 0.50702047 3.6497753 1.9725022e-38
0.27572682 0.50406271 3.6115537 2.2213567e-38
0.27952686 0.50457871 3.6148243 2.2490522e-38
0.28234965 0.50507671 3.6170483 2.1754061e-38
0.28524059 0.5042569 3.6163602 2.2491629e-38
0.28786454 0.50484711 3.6179523 2.249235e-38
0.2892769 0.50572985 3.6242275 2.2492348e-38
0.29278836 0.50610489 3.6255839 2.2768942e-38
0.2938911 0.50545764 3.6193147 2.2861506e-38
0.29788783 0.50630081 3.626739 2.1383512e-38
0.3143912 0.50880206 3.6393037 2.2400559e-38
0.31790766 0.50886136 3.636061 2.2769699e-38
0.32322976 0.50950342 3.6527154 2.2400919e-38
0.32658625 0.50977546 3.6538982 2.2216529e-38
0.32728693 0.50910604 3.6466975 2.2216528e-38
0.33106327 0.50998658 3.6515796 2.240056e-38
0.34240818 0.5081625 3.6376858 2.2954449e-38
0.34810996 0.50754178 3.6460936 2.2770059e-38
0.35951585 0.5073815 3.631454 2.2218317e-38
0.36298874 0.50872266 3.6342647 2.2125401e-38
0.37009934 0.51035434 3.6521134 2.2216517e-38
0.37257046 0.50898933 3.6442964 2.2308348e-38
0.37560701 0.50976682 3.6491768 2.2216512e-38
0.37770179 0.50931185 3.646471 2.2124314e-38
0.38129508 0.50901711 3.6503158 2.2216148e-38
0.3836104 0.50929463 3.6506152 2.1939565e-38
0.38572878 0.50891387 3.6436543 2.1385675e-38
0.38556597 0.5063085 3.6239791 2.1385675e-38
0.38804558 0.50628108 3.6227396 2.1293839e-38
0.39047286 0.50632006 3.6229129 2.129348e-38
0.39506954 0.50724339 3.6336327 2.1017968e-38
0.39674339 0.50767863 3.6318903 2.0833218e-38
0.39610189 0.50505495 3.60636 2.0001987e-38
0.40204525 0.50573957 3.618814 2.0925411e-38
0.40555447 0.50600594 3.6245232 2.0187844e-38
0.40676957 0.50616723 3.6198995 2.0556981e-38
0.4063485 0.50393385 3.5985219 2.0187484e-38
0.42493692 0.51221341 3.6516123 2.046407e-38
0.43210676 0.50978893 3.6482937 1.7420533e-38
0.43473426 0.51115525 3.6492903 1.9909445e-38
0.435361 0.5074234 3.6384435 1.9909443e-38
0.43753496 0.50756198 3.6388078 1.9909078e-38
0.44621363 0.51037937 3.6524937 2.0001624e-38
0.44966152 0.51103866 3.6547909 1.9909413e-38
0.27502254 0.5067932 3.6079104 2.1384529e-38
0.28051916 0.50701648 3.6192596 2.2398322e-38
0.28282869 0.50698006 3.6141996 2.2214667e-38
0.28576198 0.50730276 3.6165113 2.2491266e-38
0.2900278 0.50839162 3.6251609 2.2492704e-38
0.29237548 0.50761795 3.6200914 2.2676386e-38
0.29820263 0.50829345 3.6267922 2.1291676e-38
0.3003327 0.50862771 3.6254771 2.1200201e-38
0.30225945 0.50727963 3.6232119 2.1384595e-38
0.30615392 0.5076822 3.6275306 2.1201284e-38
0.31006229 0.50895268 3.6317372 2.2124691e-38
0.31097499 0.50781888 3.6249626 2.2953728e-38
0.31326777 0.50806659 3.6202993 2.27697e-38
0.31633809 0.50905263 3.6213031 2.2309082e-38
0.3187407 0.50849181 3.6197884 2.2954094e-38
0.32361048 0.50849199 3.626744 2.304593e-38
0.32783088 0.50994521 3.6352468 2.2400919e-38
0.32797149 0.51006269 3.6254952 2.2769699e-38
0.33038199 0.50944382 3.6242814 2.2769697e-38
0.33244312 0.50783122 3.616751 2.2677859e-38
0.33400422 0.5079 3.6111937 2.286225e-38
0.33682427 0.50687599 3.6061122 2.2769697e-38
0.33842924 0.50597751 3.6013188 2.1017259e-38
0.34363851 0.50690258 3.6123705 2.1109453e-38
0.35295352 0.51198566 3.6521909 2.2585666e-38
0.35323533 0.50963426 3.6466286 2.2770057e-38
0.35842511 0.50965762 3.6481366 2.2862255e-38
0.36531126 0.51571488 3.6692271 2.2125401e-38
0.35371804 0.50340623 3.5697055 2.0740279e-38
0.3671906 0.51150566 3.6514761 2.2216877e-38
0.37105328 0.51341486 3.6593096 2.2216872e-38
0.37397161 0.51412231 3.6605713 2.2400185e-38
0.37848237 0.51526332 3.6668332 2.2215072e-38
0.37758264 0.51381618 3.6553421 2.2123954e-38
0.38240123 0.51327556 3.659183 2.2031757e-38
0.3837629 0.51348454 3.6555912 2.1939565e-38
0.3864826 0.51339489 3.6453862 2.147823e-38
0.38780409 0.50918138 3.6331067 2.147823e-38
0.39128783 0.50918847 3.6346943 2.1201644e-38
0.39375213 0.51019543 3.6361549 2.1017252e-38
0.39536661 0.50899863 3.6312025 2.0925413e-38
0.39584291 0.5085848 3.6220503 2.0833218e-38
0.39677799 0.50742394 3.6076248 2.0740663e-38
0.4009223 0.50790906 3.6105933 1.981724e-38
0.40544218 0.50886041 3.6237309 2.046443e-38
0.4054817 0.50821012 3.6149237 2.0464786e-38
0.41217068 0.51055717 3.6276588 2.1017242e-38
0.40700993 0.50480217 3.5860112 1.9635029e-38
0.41871369 0.50702214 3.6032679 1.8065544e-38
0.42517349 0.51414239 3.6487701 2.0555905e-38
0.43591216 0.51482946 3.657351 1.7512009e-38
0.43321186 0.51053709 3.6357901 1.8435036e-38
0.43903983 0.51207566 3.6442583 1.9816524e-38
0.44713792 0.51364803 3.6566937 1.9632843e-38
0.4502492 0.51457417 3.6582355 1.9909419e-38
0.27558067 0.50882703 3.6080024 2.156856e-38
0.27988708 0.50929683 3.6148605 2.2397962e-38
0.28293392 0.50930631 3.6144414 2.2214665e-38
0.28535104 0.50962001 3.6148336 2.2307225e-38
0.2874732 0.50865215 3.6127355 2.2400148e-38
0.29118457 0.5088892 3.6148036 2.1848079e-38
0.29083723 0.50846088 3.6062205 2.2861143e-38
0.29228163 0.50743622 3.5938768 2.2952993e-38
0.29957351 0.50807095 3.613899 2.166189e-38
0.30315164 0.50930297 3.6172359 2.1292041e-38
0.30546656 0.51025677 3.6144946 2.2770053e-38
0.30960354 0.51099032 3.6243315 2.1016177e-38
0.31195796 0.51273948 3.6413541 2.1292404e-38
0.31454343 0.51262742 3.6383281 2.1293123e-38
0.3174538 0.51384825 3.6362629 2.2216526e-38
0.32628825 0.5136649 3.6352122 2.2216168e-38
0.33048275 0.5145902 3.6385632 2.2308723e-38
0.33292395 0.51401335 3.6343865 2.2585668e-38
0.33211854 0.50984836 3.6169817 2.2585666e-38
0.33846447 0.5126766 3.6304052 2.2493471e-38
0.34583232 0.51475459 3.6464248 2.2769697e-38
0.34609935 0.51250827 3.6348662 2.19403e-38
0.34712085 0.51298881 3.6295543 2.2032135e-38
0.35748103 0.51671797 3.6620479 2.2585662e-38
0.35927501 0.51414788 3.6513269 2.2309435e-38
0.36396989 0.51723915 3.6636584 2.2032846e-38
0.35615361 0.50571573 3.5806086 2.0647392e-38
0.35592198 0.50592333 3.5683725 2.0648078e-38
0.37158591 0.51660013 3.6616662 2.2400543e-38
0.37700984 0.51708192 3.6663392 2.221507e-38
0.38329241 0.51901382 3.6743779 2.2307263e-38
0.38557148 0.5183813 3.6730745 2.1939198e-38
0.3838523 0.51542568 3.6554315 2.1847727e-38
0.38616648 0.51584047 3.6429262 2.1017608e-38
0.38741881 0.5125587 3.6315448 2.1109089e-38
0.39143237 0.51269078 3.6351511 2.0740665e-38
0.39411131 0.51301563 3.6379759 2.0740665e-38
0.39690295 0.5133462 3.6402133 2.0741024e-38
0.39755294 0.51203233 3.6290197 2.0740663e-38
0.39895651 0.51210797 3.6253741 2.0556631e-38
0.40156826 0.51199085 3.6240165 2.037224e-38
0.40660527 0.51288813 3.6233757 2.0188566e-38
0.41417855 0.51459479 3.6393654 2.0648462e-38
0.41704923 0.51443702 3.6382079 2.0464788e-38
0.42122057 0.51054394 3.6257551 2.0279315e-38
0.42249689 0.50987262 3.6171494 1.9910527e-38
0.42788622 0.51790619 3.658478 2.0094927e-38
0.43377334 0.51667827 3.6474829 1.9909807e-38
0.43236759 0.5124132 3.6355691 1.8710906e-38
0.43957427 0.51654315 3.6499474 2.0001997e-38
0.44308248 0.51538402 3.6471779 1.963249e-38
0.44933912 0.51652557 3.6548817 1.9633196e-38
0.45176548 0.5171513 3.6557198 1.9632828e-38
0.28292567 0.51120037 3.607223 2.2030632e-38
0.28392085 0.50984156 3.6016877 2.2122837e-38
0.28761163 0.5105238 3.6103747 2.2215756e-38
0.28561887 0.50734663 3.5703638 2.2860437e-38
0.28747025 0.50682181 3.5674162 2.2677129e-38
0.29337433 0.51159817 3.6080894 2.2584921e-38
0.29524779 0.51275015 3.6079419 2.27686e-38
0.30025977 0.51101047 3.6162167 2.101617e-38
0.30375773 0.51266861 3.6203671 2.1292757e-38
0.30872333 0.51304388 3.6220183 2.1384959e-38
0.31868273 0.51667744 3.6321831 2.2032137e-38
0.32241222 0.51673907 3.631603 2.2216168e-38
0.32916954 0.51823694 3.6468158 2.2216166e-38
0.33004323 0.51625317 3.6371357 2.2308723e-38
0.33098057 0.51647854 3.6322417 2.2216526e-38
0.3343657 0.51660353 3.6340759 2.2124332e-38
0.33770278 0.51480079 3.6362946 2.2216526e-38
0.34065676 0.51496398 3.6338184 2.2031778e-38
0.34340826 0.51634109 3.6368582 2.1848105e-38
0.35008118 0.51798123 3.651804 2.2493108e-38
0.35072574 0.51708841 3.6415985 2.1939581e-38
0.35050869 0.51380658 3.6279385 2.1663713e-38
0.35492066 0.50989842 3.604053 2.166443e-38
0.3573699 0.51041502 3.5996814 2.1478957e-38
0.35777023 0.50882745 3.589746 2.0830705e-38
0.36057046 0.50948095 3.591785 2.064739e-38
0.37366509 0.51981455 3.6659236 2.2031399e-38
0.37666836 0.51965654 3.6656058 2.2030679e-38
0.38521701 0.52087402 3.6722169 2.2123592e-38
0.38349476 0.5184018 3.6540766 2.1755171e-38
0.38588214 0.51805639 3.6404183 2.1017249e-38
0.38890368 0.51730436 3.638684 2.1754818e-38
0.39128914 0.51677525 3.6388001 2.1754464e-38
0.39416933 0.51712632 3.6411357 2.1570074e-38
0.39719072 0.51749688 3.6447289 2.147824e-38
0.39927405 0.5169062 3.6414056 2.1570074e-38
0.40206122 0.51657885 3.6382015 2.1662627e-38
0.40222514 0.51470906 3.622385 2.0188569e-38
0.40705827 0.51662236 3.6328738 2.0925415e-38
0.41043884 0.51685172 3.6378481 2.0833575e-38
0.41364479 0.51747572 3.6386507 2.0557347e-38
0.41758436 0.51685154 3.6382148 1.972543e-38
0.42144433 0.51689535 3.6404746 1.8989301e-38
0.42426839 0.51671219 3.6405094 1.9910175e-38
0.42301309 0.51361471 3.6206067 2.0002724e-38
0.42848232 0.52078849 3.662703 2.0002375e-38
0.43051541 0.52127004 3.6639059 1.9633591e-38
0.43386519 0.52019346 3.6514909 1.9449553e-38
0.43933651 0.52175641 3.6612761 1.80659e-38
0.4399288 0.51682985 3.6458488 1.8251e-38
0.44379857 0.51862913 3.6502848 1.9632489e-38
0.44950512 0.51965612 3.656426 1.9724316e-38
0.27738658 0.51280671 3.6010585 2.1383813e-38
0.28126568 0.50794351 3.5662413 2.1848084e-38
0.29432493 0.5156638 3.6167636 2.2676389e-38
0.2951023 0.51590621 3.60726 2.2860431e-38
0.30006337 0.51413339 3.6181216 2.0831776e-38
0.30318329 0.51574492 3.6222966 2.1200201e-38
0.30554348 0.51597011 3.6215773 2.1200921e-38
0.307542 0.51564485 3.6186876 2.1016536e-38
0.30943313 0.51661557 3.6305485 2.1108011e-38
0.32564062 0.51920325 3.6360486 2.2216165e-38
0.32961664 0.52010429 3.6409354 2.2032135e-38
0.33037373 0.51847953 3.630383 2.2032137e-38
0.35600162 0.51364845 3.6095634 2.138784e-38
0.35704941 0.51349205 3.6043651 2.1478956e-38
0.38049006 0.52089667 3.6541348 2.2123954e-38
0.38437799 0.52172571 3.6582131 2.193992e-38
0.38477331 0.51908058 3.6354077 2.1570784e-38
0.38725749 0.51809442 3.6320739 2.0833219e-38
0.39162135 0.51846117 3.6386557 2.1754459e-38
0.39623046 0.52103227 3.6514921 2.0556632e-38
0.39767793 0.52078253 3.6489117 2.1294206e-38
0.40158165 0.52192837 3.6525655 2.1570072e-38
0.40406173 0.52233732 3.651022 2.0741031e-38
0.40510419 0.51982921 3.6426394 2.1293483e-38
0.40705371 0.51907557 3.6332493 2.08325e-38
0.41187662 0.52046722 3.6404324 2.0925411e-38
0.41458222 0.52096236 3.6437016 2.0464072e-38
0.41813442 0.5197587 3.6402953 1.94492e-38
0.42095691 0.51963073 3.6402054 1.9081135e-38
0.42614231 0.519494 3.6409597 1.963359e-38
0.42664614 0.52238077 3.6583095 2.0002378e-38
0.43119204 0.52360439 3.6666825 1.9632877e-38
0.43342382 0.52450049 3.6708746 1.9632517e-38
0.4379462 0.52363193 3.6524141 1.9080772e-38
0.44125533 0.52353251 3.6553912 1.9080046e-38
0.44509631 0.52339965 3.6554134 1.9171872e-38
0.45058542 0.52430296 3.6634219 1.9448089e-38
0.45234999 0.52397758 3.6612599 1.9356604e-38
0.27699587 0.50943649 3.5607748 2.0185285e-38
0.28406906 0.51045197 3.5610209 2.2123962e-38
0.28909686 0.51192933 3.5693281 2.194029e-38
0.29199743 0.51621395 3.6043637 2.2768227e-38
0.29382905 0.51572478 3.6033416 2.286043e-38
0.30091619 0.51810336 3.622014 2.1015807e-38
0.30381891 0.51598912 3.608933 2.1756989e-38
0.30544707 0.51554918 3.6047084 2.1939941e-38
0.31028709 0.51484197 3.5967543 2.2769699e-38
0.31725025 0.52226281 3.6331909 2.2677859e-38
0.32136592 0.52207255 3.6416667 2.2585665e-38
0.32547843 0.52360141 3.6426647 2.2309439e-38
0.33163127 0.52445406 3.6565568 2.1847385e-38
0.34676617 0.52129537 3.6344254 2.1571153e-38
0.34902698 0.52132779 3.6347594 2.1570437e-38
0.35825205 0.51813984 3.6229877 2.1571149e-38
0.35929707 0.51800913 3.6185601 2.1386757e-38
0.35930479 0.51535463 3.5975158 2.1384954e-38
0.36152914 0.51609248 3.5977905 2.1476789e-38
0.36413279 0.51607281 3.5969777 2.1477504e-38
0.38178161 0.52423626 3.6604431 2.1755531e-38
0.3849462 0.52480167 3.6618652 2.1754813e-38
0.38792434 0.52457517 3.6593938 2.166262e-38
0.38885722 0.52248436 3.6422153 2.1294195e-38
0.39282334 0.5226258 3.6465974 2.1386034e-38
0.39836919 0.52434832 3.6468923 2.1201649e-38
0.40072763 0.5255211 3.6487961 2.1017616e-38
0.40287864 0.52580267 3.6478088 2.0648472e-38
0.40602997 0.5246312 3.6486914 2.0833222e-38
0.40795881 0.52509052 3.6465521 2.101761e-38
0.41060326 0.52340758 3.6420596 2.0556631e-38
0.41132528 0.52257854 3.6339126 2.073994e-38
0.41736236 0.52092427 3.6385798 2.0371514e-38
0.41509274 0.51811945 3.618639 1.9264807e-38
0.41892919 0.52000719 3.628737 1.8896028e-38
0.42252272 0.51904112 3.6267459 1.94492e-38
0.43172541 0.52716768 3.6714568 1.9448841e-38
0.43960166 0.52718246 3.6591568 1.8250288e-38
0.44116953 0.52702028 3.6555824 1.8066971e-38
0.44680828 0.52569789 3.6562624 1.9171508e-38
0.4488979 0.52505946 3.6575713 1.9263696e-38
0.27601525 0.51651192 3.5853167 2.1107586e-38
0.2789762 0.51368183 3.5681767 1.9815427e-38
0.28176451 0.5137561 3.568228 2.0368609e-38
0.28495982 0.51422262 3.5626564 2.0646286e-38
0.28739145 0.51431 3.5625579 2.0555172e-38
0.29138851 0.51339692 3.578007 2.2585292e-38
0.29418939 0.51587808 3.5797136 2.2493458e-38
0.29738793 0.52016169 3.6057317 2.2584929e-38
0.300089 0.51920986 3.606205 2.2585652e-38
0.30346406 0.51826096 3.6077013 2.1941376e-38
0.3066594 0.51806998 3.6082587 2.1941377e-38
0.3082234 0.51644266 3.5954266 2.2770056e-38
0.31720614 0.52736467 3.6488328 2.1663706e-38
0.31956381 0.5253908 3.6442187 2.2585666e-38
0.32117543 0.52492106 3.6433744 2.2493831e-38
0.32963762 0.52683169 3.6488249 2.1847745e-38
0.3360267 0.5285272 3.661159 2.1939582e-38
0.34097174 0.52349424 3.6269367 2.2216878e-38
0.34756175 0.52377522 3.6379726 2.1018342e-38
0.35760579 0.52029902 3.6207333 2.1386756e-38
0.35894063 0.52074927 3.6170566 2.1018334e-38
0.35961792 0.51953858 3.6036234 2.1109447e-38
0.36436558 0.5184927 3.5974164 2.1016529e-38
0.37924859 0.52432078 3.6286988 2.0833216e-38
0.38455003 0.52728111 3.6610947 2.1294197e-38
0.38869664 0.52792704 3.6664681 2.1570783e-38
0.38910475 0.52528661 3.642216 2.1294195e-38
0.39296234 0.52526367 3.6464961 2.1294199e-38
0.39458504 0.52459204 3.6378477 2.0371519e-38
0.39801797 0.52781016 3.647682 1.917154e-38
0.3995983 0.52792275 3.6455617 2.0370442e-38
0.40907538 0.52897018 3.6616807 2.0463718e-38
0.40895078 0.52565157 3.6469948 2.1109446e-38
0.41058809 0.52550775 3.6448309 2.0740302e-38
0.41504192 0.52688283 3.65135 2.055555e-38
0.41739509 0.52617562 3.645103 1.9632154e-38
0.41952777 0.52524823 3.6415863 1.9355567e-38
0.41812503 0.52188921 3.6260655 1.8895666e-38
0.42138812 0.52309662 3.630281 1.8803115e-38
0.42370161 0.52174163 3.6224062 1.8803473e-38
0.42450589 0.52035117 3.6087832 1.9356281e-38
0.42725852 0.52032065 3.6088901 1.9264079e-38
0.43824825 0.52291918 3.6321621 1.9171869e-38
0.44396996 0.52862912 3.6594219 1.9171878e-38
0.4459736 0.52822077 3.6563942 1.8987478e-38
0.44692501 0.52900308 3.6575987 1.8249554e-38
0.45131347 0.52955306 3.6645236 1.9171501e-38
0.28144491 0.51565355 3.5669367 2.1570407e-38
0.28648868 0.51759231 3.5768113 2.1571139e-38
0.28965214 0.51412529 3.5697625 2.1848813e-38
0.30190215 0.52228498 3.6054871 2.2492742e-38
0.30312577 0.52226847 3.6092832 2.2493102e-38
0.30213797 0.52059114 3.6024191 2.2493461e-38
0.30645388 0.51990896 3.6035252 2.184846e-38
0.31606722 0.52772301 3.64061 2.2677139e-38
0.31723499 0.52751285 3.6363549 2.2493468e-38
0.31955421 0.52762532 3.6371779 2.2309077e-38
0.33594844 0.53019112 3.6564875 2.1662998e-38
0.34145251 0.53097934 3.6597943 2.138677e-38
0.35017636 0.52726018 3.6518157 2.1939934e-38
0.35680401 0.52319419 3.619875 2.1109814e-38
0.35903683 0.52311993 3.6173682 2.1018335e-38
0.36103311 0.52261537 3.6091805 2.0925057e-38
0.3628864 0.52253443 3.6069882 2.1477148e-38
0.37194687 0.52604121 3.6185274 2.101653e-38
0.37878212 0.52670151 3.6281693 2.0740665e-38
0.38190395 0.52746499 3.6278367 2.08325e-38
0.39502713 0.52418506 3.6107733 2.0370082e-38
0.40921107 0.53018773 3.651787 2.0371879e-38
0.41114959 0.52951646 3.648869 2.0279682e-38
0.4155345 0.53012508 3.6561737 2.0831417e-38
0.41751057 0.53080994 3.6527057 2.0186406e-38
0.41813302 0.52671438 3.6354327 1.9079702e-38
0.41791996 0.52465832 3.6253934 1.8895307e-38
0.42041191 0.5240767 3.6166155 1.9448481e-38
0.42090523 0.52341545 3.6090829 1.9172253e-38
0.42349997 0.52314895 3.6075647 1.7051393e-38
0.42422503 0.52139771 3.5998898 1.723506e-38
0.29770684 0.52556652 3.6209104 2.2491648e-38
0.3001985 0.52533227 3.6037948 2.2400186e-38
0.30143219 0.52479225 3.6039143 2.2308352e-38
0.30576071 0.52577829 3.6219916 2.2307995e-38
0.30786237 0.52718204 3.6236107 2.2400189e-38
0.31076521 0.52417707 3.6021662 2.0647749e-38
0.33109066 0.53270781 3.6552861 2.1110543e-38
0.33343059 0.53255123 3.6552663 2.1202377e-38
0.33997938 0.53362978 3.6627767 2.1294213e-38
0.34006661 0.52810872 3.6189237 2.2123965e-38
0.34717873 0.52847439 3.6270497 2.1386043e-38
0.35378376 0.52636206 3.6080468 2.1386399e-38
0.35928082 0.52694589 3.6180818 2.1754817e-38
0.36108389 0.52672505 3.6130109 2.1109447e-38
0.36298299 0.52495593 3.607671 2.1108726e-38
0.3657783 0.52545112 3.6075494 2.083178e-38
0.36781844 0.52568734 3.6075101 2.0924336e-38
0.37091106 0.52576631 3.6075857 2.1016892e-38
0.3778536 0.52740073 3.6049178 1.944813e-38
0.38033795 0.52766317 3.6049783 1.9263378e-38
0.39265549 0.52754277 3.6160214 2.0277527e-38
0.3946695 0.52754486 3.61327 2.0186052e-38
0.40780792 0.53338236 3.6585991 2.0371881e-38
0.41035682 0.53302956 3.6589105 2.0462996e-38
0.41212785 0.53220147 3.6548457 2.0462998e-38
0.41551912 0.53282374 3.6586757 2.0278962e-38
0.41876456 0.53369176 3.6587021 1.9449562e-38
0.42062595 0.53404427 3.6627629 1.944884e-38
0.42336765 0.53332853 3.6649454 1.9909098e-38
0.42006654 0.5274837 3.607125 1.8804182e-38
0.4228909 0.52432382 3.5971704 1.7143591e-38
0.28973889 0.52874476 3.6275275 2.1753669e-38
0.29038271 0.52784753 3.6134019 2.2030646e-38
0.29165542 0.52847582 3.6108036 2.2121776e-38
0.29132301 0.52361232 3.5969315 2.2491646e-38
0.30551949 0.52784181 3.6205587 2.2307993e-38
0.30709326 0.5277825 3.6175613 2.2308712e-38
0.30873057 0.52701294 3.6141784 2.2676777e-38
0.33339778 0.53591561 3.6592221 2.1202013e-38
0.3351762 0.53498346 3.6535635 2.129385e-38
0.34656295 0.53294444 3.6474948 2.2031768e-38
0.34990746 0.5336597 3.6526141 2.2031409e-38
0.34553635 0.52864975 3.5943618 2.0094575e-38
0.35097891 0.52930892 3.6066403 1.9817269e-38
0.35768369 0.52915442 3.6102035 2.0926136e-38
0.36182019 0.53038663 3.6167688 2.0648468e-38
0.36540356 0.52826124 3.6180084 2.08325e-38
0.3685427 0.52817869 3.615752 2.083214e-38
0.36990544 0.52808917 3.6122937 2.1016531e-38
0.37168196 0.52805775 3.6102076 2.0924696e-38
0.37334085 0.52643949 3.5971992 2.08325e-38
0.37588406 0.5272755 3.5912378 2.0279687e-38
0.37806335 0.5272547 3.5909173 2.0280044e-38
0.39063722 0.52919525 3.6060956 1.9909464e-38
0.39449024 0.53159684 3.6221938 1.9909105e-38
0.39690822 0.53168482 3.6225989 1.9725791e-38
0.39752287 0.5288682 3.6150427 2.018605e-38
0.40301946 0.5320648 3.6339533 1.9817627e-38
0.40793827 0.53335249 3.6422558 2.0370802e-38
0.40873218 0.53103989 3.6333289 2.0278962e-38
0.41405267 0.53275341 3.6479409 1.9817624e-38
0.41489074 0.53250557 3.641077 1.9632873e-38
0.42011747 0.53722215 3.6631801 1.9080056e-38
0.42499912 0.53709656 3.6687586 1.9264446e-38
0.42477706 0.5368312 3.6579626 1.7788966e-38
0.42874336 0.53623778 3.6599975 1.7973713e-38
0.43056306 0.53629857 3.6586564 1.7696767e-38
0.43370473 0.53584754 3.6552331 1.815738e-38
0.43290588 0.5341484 3.6358516 1.9171515e-38
0.44133401 0.53766918 3.6569753 1.6866625e-38
0.28510404 0.52897179 3.6076052 2.166148e-38
0.2883698 0.53105807 3.6102409 2.1753697e-38
0.29239497 0.53085196 3.6144509 2.1937745e-38
0.28928581 0.52607781 3.5878828 2.2399452e-38
0.30021006 0.53140384 3.6040599 2.2215077e-38
0.33279809 0.53819454 3.6573493 2.0925066e-38
0.33504149 0.53761119 3.6531253 2.1385685e-38
0.34007213 0.53495681 3.6416645 2.1110176e-38
0.34892505 0.53236538 3.6087408 2.0924346e-38
0.3523742 0.53237516 3.6109467 2.0924703e-38
0.35514411 0.53266335 3.6144247 2.0648475e-38
0.35899773 0.53104866 3.6140258 2.1109447e-38
0.36207712 0.53323871 3.6200612 2.0740662e-38
0.36519393 0.53118694 3.6174066 2.0648469e-38
0.37255546 0.53102422 3.6133599 2.0464435e-38
0.37302732 0.52857447 3.5960264 2.0464435e-38
0.37916097 0.53071147 3.6046464 2.0096011e-38
0.3781313 0.52941084 3.5908308 2.0003817e-38
0.38205358 0.52968544 3.5943406 2.0094934e-38
0.38608 0.53026545 3.6022928 2.0186411e-38
0.39427057 0.53272963 3.61935 1.9817268e-38
0.39711475 0.53331047 3.6205161 1.9909105e-38
0.39851165 0.53293639 3.6184273 1.9540682e-38
0.40311092 0.5350104 3.6256983 1.9171897e-38
0.40588972 0.53446668 3.6275651 1.8526155e-38
0.41010261 0.53518307 3.634258 1.871092e-38
0.40866271 0.53294367 3.6194935 1.8157007e-38
0.42178747 0.54102576 3.6816778 2.0001649e-38
0.42527932 0.5401631 3.6759481 1.8803469e-38
0.42722732 0.540712 3.6692576 1.8803108e-38
0.43026805 0.54072452 3.6709654 1.8710913e-38
0.43579254 0.54028159 3.6671274 1.7880791e-38
0.43770456 0.53934151 3.6613564 1.8064091e-38
0.4377861 0.53772205 3.6491001 1.9171869e-38
0.44381484 0.53751713 3.6574919 1.9079665e-38
0.28475296 0.53302014 3.6154916 2.1291257e-38
0.28554237 0.53237748 3.6087756 2.1384546e-38
0.28966355 0.53408909 3.6166232 2.1568953e-38
0.28985015 0.53144401 3.6026726 2.1845552e-38
0.29035246 0.52954513 3.5910983 2.2122864e-38
0.29401058 0.53031456 3.5915613 2.2123232e-38
0.30499417 0.53236461 3.600966 2.147823e-38
0.30621159 0.53166139 3.5959163 2.2123601e-38
0.31157759 0.53405732 3.6057215 2.2123599e-38
0.31492239 0.5331459 3.6070194 2.2031405e-38
0.31826997 0.53356814 3.6176417 2.1386044e-38
0.33629212 0.54128194 3.661036 2.1016167e-38
0.33540016 0.53924358 3.6423337 2.1202013e-38
0.34298068 0.5374161 3.6446393 2.1109819e-38
0.34586132 0.53236777 3.6017303 2.1570791e-38
0.34983799 0.53511977 3.6134124 2.1385684e-38
0.35294408 0.5367952 3.6185071 2.0463003e-38
0.35466552 0.53459275 3.6117606 2.1017255e-38
0.35916445 0.53395706 3.6147523 2.0648469e-38
